ply
format ascii 1.0
comment Created by Open3D
element vertex 1660
property double x
property double y
property double z
end_header
27.7261 4.34711 -1.29065e-16
28.2662 4.83254 0
32.5538 -7.62363 -2.76708e-16
32.2488 -8.51935 -2.37863e-16
33.1566 -8.34431 -1.71524e-16
34.0623 -8.17326 -1.05185e-16
32.8592 -6.7267 -3.15554e-16
27.2225 -24.6841 4.76451e-16
26.623 -24.5327 5.48606e-16
26.8831 -25.4102 5.23898e-16
27.152 -26.2835 4.99189e-16
26.5487 -26.1408 5.71344e-16
27.5668 -23.9625 4.29005e-16
27.8225 -24.835 4.04296e-16
26.0238 -24.3809 6.20761e-16
26.3712 -23.6516 5.73315e-16
20.0348 -37.0798 1.77073e-15
20.2934 -37.9159 1.70385e-15
20.6332 -37.3006 1.72518e-15
20.9765 -36.6902 1.74651e-15
21.2313 -37.5197 1.67964e-15
19.4358 -36.8574 1.81628e-15
19.782 -36.2409 1.83761e-15
20.5577 -38.7496 1.63698e-15
19.9574 -38.537 1.68252e-15
21.7981 -33.6635 1.57644e-15
22.3609 -33.8069 1.48729e-15
22.0054 -32.9005 1.49535e-15
21.6584 -31.9898 1.5034e-15
22.2183 -32.1415 1.41425e-15
21.5967 -34.4306 1.65753e-15
21.235 -33.5185 1.66559e-15
22.9235 -33.9485 1.39814e-15
22.7246 -34.7089 1.47924e-15
24.1127 -43.7682 2.11611e-16
24.7487 -43.48 2.11611e-16
24.2486 -42.3276 4.23222e-16
23.78 -41.1774 6.34834e-16
24.4362 -40.884 6.34834e-16
24.0549 -45.1568 0
23.4778 -44.0502 2.11611e-16
25.3863 -43.1688 2.11611e-16
25.3289 -44.5764 0
23.3949 -28.9258 1.05722e-15
23.074 -30.08 1.16627e-15
23.9599 -30.101 1.01928e-15
24.8452 -30.1217 8.72296e-16
24.5405 -31.2655 9.81347e-16
22.8452 -27.7407 1.09516e-15
23.7294 -27.7803 9.48169e-16
22.7671 -31.2433 1.27532e-15
22.1869 -30.0588 1.31326e-15
21.1508 -44.7839 2.26425e-16
21.9841 -44.7594 2.26425e-16
21.4228 -44.026 4.52851e-16
20.8738 -43.2795 6.79276e-16
21.7028 -43.2689 6.79276e-16
20.8833 -45.5407 0
20.3181 -44.8103 2.26425e-16
22.8187 -44.7374 2.26425e-16
22.559 -45.4717 0
26.3045 -33.9318 5.84278e-16
26.9538 -33.5027 3.96434e-16
26.2205 -32.9093 6.05024e-16
25.4924 -32.3064 8.13614e-16
26.1472 -31.8865 6.2577e-16
26.3991 -34.9541 5.63532e-16
25.6571 -34.3673 7.72122e-16
27.6052 -33.0802 2.0859e-16
27.6925 -34.0861 1.87844e-16
27.412 -35.9368 1.87844e-16
27.5478 -35.0092 1.87844e-16
26.9037 -35.449 3.75688e-16
26.2619 -35.896 5.63532e-16
27.9245 -36.4172 0
27.2848 -36.8694 1.87844e-16
28.1947 -34.5766 0
25.6938 -42.3587 2.11611e-16
26.0289 -41.567 2.11611e-16
25.2306 -41.2437 4.23222e-16
24.7773 -40.1153 6.34834e-16
26.2097 -43.4065 0
26.3732 -40.7898 2.11611e-16
26.8438 -41.829 0
26.6786 -38.8753 2.11611e-16
25.7271 -39.4944 4.23222e-16
26.5245 -39.8275 2.11611e-16
27.328 -40.1387 0
26.8414 -37.931 2.11611e-16
27.6353 -38.2703 0
24.9335 -39.14 6.34834e-16
28.7788 -27.4867 1.36659e-16
28.0598 -27.6318 2.73318e-16
28.5851 -28.3859 1.36659e-16
29.1188 -29.132 0
28.4003 -29.2884 1.36659e-16
28.9807 -26.5909 1.36659e-16
29.4986 -27.3449 0
27.3417 -27.7801 4.09977e-16
27.5426 -26.8702 4.09977e-16
20.741 -33.0511 1.6514e-15
20.9539 -32.2829 1.5703e-15
20.2486 -32.5801 1.63721e-15
19.5425 -32.8813 1.70411e-15
19.7579 -32.1052 1.62302e-15
20.534 -33.8235 1.73249e-15
21.1726 -31.5187 1.48921e-15
1.10127 -4.57194 5.81386e-18
1.09381 -5.4439 6.3267e-17
1.96871 -4.70455 -1.55549e-17
2.82992 -3.97082 -9.43769e-17
2.83104 -4.82914 -3.69237e-17
0.228387 -4.43095 2.71826e-17
1.10874 -3.70791 -5.16393e-17
1.08681 -6.32393 1.2072e-16
0.203223 -6.18933 1.42089e-16
14.4877 9.44559 -1.52466e-16
13.754 9.76736 -1.52466e-16
13.8257 8.71095 -3.04932e-16
13.8992 7.64997 -4.57398e-16
13.1584 7.9809 -4.57398e-16
15.1349 10.1938 0
15.2265 9.13646 -1.52466e-16
13.022 10.095 -1.52466e-16
13.6913 10.8257 0
8.68379 10.1367 -3.94933e-16
9.38692 9.84085 -4.06304e-16
9.37363 10.8147 -2.67079e-16
10.0608 11.4987 -1.39225e-16
10.0893 9.55071 -4.17675e-16
26.3543 2.80521 -4.55116e-16
27.2209 2.82276 -4.21155e-16
27.0494 3.5912 -2.9209e-16
26.8776 4.37564 -1.63025e-16
25.6561 2.01727 -6.18141e-16
25.4805 2.77649 -4.89076e-16
27.4021 2.07044 -5.5022e-16
31.2302 -18.0086 2.74785e-17
31.4777 -17.1277 2.74785e-17
30.7566 -17.4888 5.49571e-17
30.0353 -17.8557 8.24356e-17
30.2857 -16.9681 8.24356e-17
31.7068 -18.5277 0
30.9885 -18.8904 2.74785e-17
31.7307 -16.2479 2.74785e-17
32.1984 -16.7726 0
-14.5081 -23.0274 1.99705e-16
-14.8765 -24.6378 1.99705e-16
-13.8603 -24.1892 3.9941e-16
-12.8591 -23.7486 5.99115e-16
-13.2122 -25.3326 5.99115e-16
-15.1576 -21.8462 0
-14.1085 -21.4275 1.99705e-16
-15.2152 -26.2631 1.99705e-16
-15.9079 -25.095 0
-9.31038 -14.9808 4.10006e-16
-10.6326 -15.267 2.88006e-16
-10.0864 -16.4467 4.54013e-16
-9.52693 -17.5972 6.2002e-16
-10.8271 -17.9631 4.98021e-16
-8.03769 -14.7199 5.32005e-16
-12.005 -15.5864 1.66007e-16
30.3069 -4.84946 -6.17243e-16
30.0569 -5.71356 -5.79539e-16
30.8745 -5.52218 -5.39174e-16
31.691 -5.33116 -4.98808e-16
29.7399 -4.17699 -6.95312e-16
30.5555 -3.98562 -6.54947e-16
29.2381 -5.90524 -6.19905e-16
30.4047 -20.5925 7.53276e-17
29.5754 -20.9091 1.50655e-16
30.1766 -21.478 7.53276e-17
30.7825 -22.0442 0
30.6397 -19.7087 7.53276e-17
31.2339 -20.2843 0
28.9783 -20.3376 2.25983e-16
23.0757 -41.8605 6.49648e-16
22.3827 -42.5528 6.64462e-16
22.9221 -43.3012 4.38037e-16
23.2654 -40.4246 8.61259e-16
21.8529 -41.8014 8.90888e-16
24.2326 -37.4231 9.58588e-16
24.6808 -36.3374 9.34821e-16
24.0623 -36.2053 1.0945e-15
23.444 -36.07 1.25418e-15
23.9048 -34.9879 1.23041e-15
24.4147 -38.6422 8.22678e-16
23.7929 -38.5198 9.82356e-16
25.1383 -35.2646 9.11054e-16
25.2999 -36.4659 7.75143e-16
5.17892 -42.3457 8.86472e-16
5.68955 -43.2725 6.22088e-16
5.82287 -41.8381 9.79792e-16
5.97438 -40.4079 1.3375e-15
6.46269 -41.3328 1.07311e-15
4.52911 -42.8542 7.93151e-16
4.67507 -41.4082 1.15086e-15
6.20814 -44.1847 3.57704e-16
5.56438 -44.6908 2.64384e-16
0.657394 -16.8596 8.60678e-16
-0.0197794 -16.4001 8.45959e-16
-0.437352 -17.4675 9.24164e-16
-0.84571 -18.5535 1.00237e-15
-1.55109 -18.0923 9.8765e-16
1.7335 -16.2643 7.97191e-16
1.33318 -17.3086 8.75396e-16
-0.698162 -15.9294 8.3124e-16
0.404715 -15.3511 7.67754e-16
4.14829 -1.21178 -3.32839e-16
3.24806 -1.3419 -2.80619e-16
3.69304 -2.20827 -2.43068e-16
4.14086 -3.07564 -2.05517e-16
3.23299 -3.21534 -1.53297e-16
4.5995 -0.225073 -4.2261e-16
5.0428 -1.07707 -3.85059e-16
2.34153 -1.46731 -2.28399e-16
2.80553 -0.477301 -3.18171e-16
-1.84754 2.91677 -6.21279e-17
-0.999642 3.03635 -1.24256e-16
-1.41139 3.79046 -6.21279e-17
-1.82209 4.53867 0
-0.979933 4.66131 -6.21279e-17
-2.28945 2.03974 -6.21279e-17
-2.70185 2.80087 0
-0.157801 3.15919 -1.86384e-16
-0.586711 2.27665 -1.86384e-16
5.0956 12.4516 -8.88008e-17
3.83754 12.0486 -8.88008e-17
4.316 11.4271 -1.77602e-16
3.48499 7.30361 -4.86652e-16
4.18374 7.67037 -5.53864e-16
3.89705 8.24724 -4.6524e-16
4.3132 9.18612 -4.43828e-16
3.07551 6.35514 -5.08064e-16
4.88091 8.03512 -6.21077e-16
4.47213 7.09294 -6.42489e-16
-3.19472 0.299055 -1.94331e-17
-3.6603 -0.592042 -1.94331e-17
-2.7801 -0.46037 -3.88663e-17
-1.90875 -0.322056 -5.82994e-17
-3.60803 1.05106 0
-2.73818 1.18462 -1.94331e-17
-4.54978 -0.716351 0
-2.31826 -6.86633 2.16434e-16
-2.32596 -8.02838 2.91347e-16
-1.47392 -7.33075 2.35774e-16
-0.640498 -6.64025 1.80202e-16
-0.631658 -7.78277 2.55115e-16
-2.30982 -5.72385 1.41521e-16
-2.33097 -9.20982 3.6626e-16
-1.52173 -22.1627 1.25709e-15
-0.851131 -22.0973 1.24014e-15
-1.45832 -21.1597 1.18769e-15
-2.05583 -20.2056 1.13525e-15
-1.37982 -20.1631 1.1183e-15
-1.56925 -23.1713 1.32648e-15
-2.19952 -22.2285 1.27404e-15
-0.187197 -22.032 1.22318e-15
-0.234483 -23.0185 1.29258e-15
-9.90222 -34.0498 1.37479e-15
-10.2285 -32.5942 1.34023e-15
-10.8811 -34.0982 1.22495e-15
-11.5022 -35.6399 1.10966e-15
-8.93783 -34.0002 1.52464e-15
-9.53727 -35.4804 1.40936e-15
-9.55099 -31.1242 1.45551e-15
-15.155 -37.3769 2.39954e-16
-14.646 -39.4489 2.39954e-16
-14.101 -37.519 4.79907e-16
-13.5281 -35.624 7.19861e-16
-16.2433 -37.151 0
-15.6296 -35.3277 2.39954e-16
-15.2059 -41.3822 0
-9.31844 -38.9913 1.11746e-15
-8.44347 -39.0715 1.16022e-15
-8.79706 -37.8203 1.27896e-15
-9.13255 -36.5516 1.39771e-15
-8.26614 -36.6723 1.44047e-15
-10.2067 -38.9245 1.0747e-15
-7.58352 -39.1657 1.20298e-15
29.644 -1.80348 -7.00822e-16
29.9057 -0.883647 -6.48741e-16
29.0389 -1.20962 -7.2071e-16
28.1696 -1.53205 -7.92679e-16
28.4369 -0.61366 -7.40598e-16
30.2518 -2.39567 -6.80935e-16
29.3799 -2.72142 -7.52903e-16
30.1655 0.0405818 -5.9666e-16
30.7693 -0.554119 -5.76773e-16
34.3649 2.00575 -7.02018e-17
34.5541 1.30702 -1.40404e-16
35.1178 1.7643 -7.02018e-17
35.6797 2.21166 0
34.1739 2.7055 0
31.963 -14.4785 -9.78301e-18
32.2404 -13.6025 -9.78301e-18
31.2066 -13.9347 -1.9566e-17
30.1711 -14.274 -2.9349e-17
30.4525 -13.3908 -2.9349e-17
32.7219 -15.0223 0
31.6898 -15.355 -9.78301e-18
32.5216 -12.727 -9.78301e-18
33.2727 -13.2772 0
29.3257 -19.5068 1.78134e-16
30.1574 -19.1949 1.02806e-16
29.6781 -18.6796 1.30285e-16
29.2017 -18.1627 1.57763e-16
28.4936 -19.8259 2.53461e-16
20.2196 -41.6581 1.13347e-15
19.9817 -40.8656 1.31096e-15
19.5206 -41.5828 1.18376e-15
19.0666 -42.3107 1.05656e-15
18.8205 -41.5078 1.23404e-15
20.9178 -41.7341 1.08319e-15
20.4658 -42.4486 9.55986e-16
19.7509 -40.0723 1.48845e-15
20.4507 -40.1614 1.43816e-15
24.639 -27.8766 8.38302e-16
25.1907 -29.0427 8.00365e-16
25.5481 -27.9722 7.28434e-16
25.9171 -26.9101 6.56503e-16
26.4574 -28.0675 6.18567e-16
24.1027 -26.7003 8.76238e-16
25.7583 -30.198 7.62429e-16
27.8994 -31.2437 2.0859e-16
27.0225 -31.5616 4.1718e-16
27.7478 -32.1599 2.0859e-16
28.4795 -32.7493 0
28.0605 -30.3313 2.0859e-16
28.7785 -30.9333 0
26.3032 -30.9544 6.2577e-16
22.5095 -23.4561 8.31279e-16
21.713 -23.5945 8.65043e-16
22.4617 -24.5529 8.94142e-16
23.2189 -25.5011 9.23241e-16
22.4264 -25.6523 9.57006e-16
22.5693 -22.3619 7.68415e-16
23.3041 -23.3196 7.97514e-16
20.9146 -23.7351 8.98807e-16
20.973 -22.6259 8.35944e-16
0.803162 -18.8521 9.91325e-16
-0.280296 -19.4974 1.05481e-15
0.295231 -20.4269 1.10725e-15
0.880519 -21.3421 1.1597e-15
1.87093 -18.2235 9.27839e-16
26.1947 -9.01879 -4.0117e-16
25.753 -9.72237 -3.31401e-16
26.512 -9.66495 -3.45933e-16
27.27 -9.60824 -3.60466e-16
26.8311 -10.3098 -2.90697e-16
25.879 -8.37163 -4.56406e-16
26.6365 -8.31811 -4.70938e-16
25.3117 -10.4291 -2.61632e-16
24.9929 -9.78041 -3.16868e-16
-8.04895 -8.03767 5.99088e-17
-7.16348 -7.87859 1.19818e-16
-7.44169 -7.04077 5.99088e-17
-7.71541 -6.21798 0
-6.86218 -6.06902 5.99088e-17
-8.95615 -8.18122 0
-6.29771 -7.7066 1.79726e-16
-7.71931 -26.7873 1.4559e-15
-8.21492 -25.9662 1.37254e-15
-8.59136 -27.4496 1.41646e-15
-8.93749 -28.9508 1.46038e-15
-9.47027 -28.1307 1.37702e-15
-6.8547 -26.1442 1.49535e-15
-7.21724 -27.5938 1.53927e-15
-8.70399 -25.1306 1.28917e-15
-7.80979 -24.5014 1.32861e-15
-15.7448 -29.7381 1.94898e-16
-15.8724 -31.8183 1.94898e-16
-15.0692 -30.647 3.89797e-16
-14.2623 -29.4862 5.84695e-16
-14.3966 -31.5434 5.84695e-16
-16.4236 -28.8135 0
-15.5762 -27.6671 1.94898e-16
-15.9533 -33.9226 1.94898e-16
-16.6709 -33.0033 0
-10.1024 -36.6551 1.24786e-15
-11.0859 -36.7651 1.09801e-15
-10.6527 -37.8607 1.08635e-15
-12.3341 -28.8186 9.44737e-16
-11.3763 -28.6595 1.10507e-15
-12.0038 -27.4553 9.49544e-16
-12.6187 -26.2288 7.94014e-16
-11.6454 -26.1087 9.5435e-16
-13.3065 -28.9749 7.844e-16
-10.4327 -28.4993 1.26541e-15
-7.99231 -29.3279 1.54847e-15
-7.05832 -29.6919 1.63656e-15
-7.14696 -28.6446 1.58791e-15
-6.3076 -27.981 1.62736e-15
-8.84359 -30.0308 1.50903e-15
-6.13542 -30.0449 1.72464e-15
-6.9509 -30.7347 1.6852e-15
-6.88622 -37.8897 1.37256e-15
-6.1796 -36.6411 1.54213e-15
-7.21201 -36.6499 1.4913e-15
-6.54565 -39.1226 1.25381e-15
-5.16869 -36.6438 1.59296e-15
-5.54868 -43.0251 5.57749e-16
-4.88124 -41.7975 8.44437e-16
-5.8729 -41.7357 8.28809e-16
-6.196 -40.4506 1.09987e-15
-5.22541 -44.3179 2.86688e-16
-4.21401 -40.5921 1.13113e-15
-3.91168 -41.865 8.60065e-16
35.2344 -1.46282 -1.80367e-16
34.6003 -0.990465 -2.50569e-16
34.383 -1.68947 -2.90532e-16
33.5313 -1.90795 -4.00697e-16
33.9666 -0.519406 -3.20771e-16
33.1723 -0.476132 -3.81742e-16
32.38 -0.426416 -4.42713e-16
32.9544 -1.16895 -4.21705e-16
32.7322 -1.86245 -4.61668e-16
31.5888 -0.375396 -5.03684e-16
25.368 -38.0433 6.11066e-16
26.3247 -37.4509 3.99455e-16
25.8108 -36.9622 5.87299e-16
24.9561 -33.1891 9.52546e-16
24.4269 -34.083 1.09148e-15
25.0418 -34.2265 9.318e-16
24.8814 -32.1521 9.73292e-16
23.8124 -33.9369 1.25116e-15
23.9944 -32.1492 1.12028e-15
23.1068 -32.1457 1.26727e-15
23.4554 -33.0436 1.25921e-15
26.6376 -29.8879 5.53839e-16
27.5181 -29.5846 3.45249e-16
26.9838 -28.8299 4.81908e-16
25.4333 -4.65507 -7.07615e-16
24.8229 -4.15672 -7.17977e-16
24.6291 -5.2397 -6.48612e-16
24.4363 -6.32431 -5.79248e-16
23.822 -5.82613 -5.89609e-16
26.2345 -4.07218 -7.66619e-16
26.0453 -5.15111 -6.97254e-16
24.2143 -3.65593 -7.28338e-16
25.0175 -3.0747 -7.87341e-16
30.9657 -15.7106 1.76955e-17
30.2033 -15.1732 7.91252e-18
30.2413 -16.0712 4.51741e-17
29.5168 -16.437 7.26526e-17
29.4435 -14.6352 -1.87049e-18
29.7397 -24.1014 8.92125e-17
29.1404 -24.4024 1.78425e-16
29.5206 -24.9882 8.92125e-17
29.9058 -25.5698 0
29.3093 -25.8777 8.92125e-17
30.3396 -23.805 0
28.5419 -24.7083 2.67637e-16
27.0529 -19.7187 3.36315e-16
26.6854 -18.8629 3.19402e-16
26.3343 -19.624 3.88232e-16
25.9877 -20.3893 4.57062e-16
25.6153 -19.5298 4.4015e-16
27.7712 -19.8141 2.84397e-16
27.4276 -20.5707 3.53228e-16
26.3246 -18.0036 3.02489e-16
27.0404 -18.1055 2.50572e-16
-2.63193 -29.6367 1.73142e-15
-2.80404 -30.6758 1.79014e-15
-2.15757 -30.8236 1.78598e-15
-1.5177 -30.9697 1.78183e-15
-1.66547 -31.9976 1.84055e-15
-3.08683 -28.4361 1.67686e-15
-2.44344 -28.6041 1.6727e-15
-2.9592 -31.7212 1.84886e-15
-3.45735 -30.5262 1.7943e-15
3.27684 -40.4698 1.27665e-15
3.32251 -39.3806 1.44837e-15
2.49543 -40.1055 1.32405e-15
1.66419 -40.8428 1.19972e-15
1.70687 -39.7361 1.37145e-15
4.05185 -40.8285 1.22926e-15
3.24054 -41.5628 1.10493e-15
3.37923 -38.2982 1.62009e-15
4.14722 -38.669 1.5727e-15
24.7382 -25.9175 7.91079e-16
25.6435 -26.0292 6.81212e-16
25.3787 -25.1445 7.0592e-16
25.1224 -24.2563 7.30628e-16
23.8322 -25.8055 9.00946e-16
26.1067 -21.1864 4.91185e-16
26.2316 -21.9822 5.25307e-16
26.8282 -21.273 4.39267e-16
27.5494 -21.3605 3.8735e-16
25.3848 -21.1001 5.43102e-16
26.3626 -22.7765 5.5943e-16
25.6381 -22.6985 6.11347e-16
-7.62281 -31.7987 1.63168e-15
-8.58126 -31.4679 1.54359e-15
-8.28554 -32.8871 1.57816e-15
-2.79471 -34.9323 1.78251e-15
-1.99867 -35.2784 1.78403e-15
-1.95171 -34.1012 1.80097e-15
-1.88498 -32.9296 1.81792e-15
-1.1094 -33.2899 1.81944e-15
-3.60218 -34.5826 1.78099e-15
-1.21366 -35.6204 1.78554e-15
27.8707 -26.145 3.6253e-16
28.5898 -26.0097 2.25871e-16
28.2038 -25.4244 3.15084e-16
27.5481 -22.2284 4.01235e-16
26.958 -22.9363 4.87275e-16
27.5538 -23.0957 4.1512e-16
11.5246 10.8239 -1.39225e-16
10.7931 11.16 -1.39225e-16
10.8086 10.1837 -2.7845e-16
10.8328 9.20674 -4.17675e-16
12.2382 11.4695 0
12.2555 10.4907 -1.39225e-16
10.7846 12.1359 0
5.12849 9.19013 -4.82881e-16
5.41022 8.61638 -5.71506e-16
5.9411 9.1936 -5.21934e-16
6.75223 9.19949 -5.60987e-16
5.69452 8.04315 -6.6013e-16
20.4581 5.16406 -4.66668e-16
21.2942 5.15041 -4.35555e-16
21.1579 5.917 -3.00741e-16
21.021 6.69819 -1.65927e-16
21.8396 6.64312 -1.34814e-16
19.7557 4.41086 -6.32596e-16
19.6143 5.16916 -4.97782e-16
22.1279 5.14486 -4.04441e-16
21.4399 4.39831 -5.70368e-16
-0.622448 -5.74698 1.22749e-16
-0.60445 -4.86371 6.52955e-17
-1.44999 -5.29492 1.03408e-16
-2.27943 -4.83381 8.4068e-17
-0.586981 -3.9902 7.84233e-18
23.296 6.07154 -1.34814e-16
22.5678 6.36015 -1.34814e-16
22.7116 5.60314 -2.69627e-16
22.8621 4.85772 -4.04441e-16
23.8848 6.52239 0
24.0216 5.78148 -1.34814e-16
22.4111 7.11173 0
21.2453 -6.93307 -4.51005e-16
22.1572 -6.61839 -5.02083e-16
21.5971 -6.0028 -5.34999e-16
21.0392 -5.38432 -5.67915e-16
21.9491 -5.07621 -6.18994e-16
20.8939 -7.86761 -3.6701e-16
20.3306 -7.24835 -3.99927e-16
23.0661 -6.3041 -5.53161e-16
22.7193 -7.2312 -4.69167e-16
22.3635 -2.21956 -7.85869e-16
22.2574 -3.1021 -7.37114e-16
23.0119 -2.6325 -7.73562e-16
23.7634 -2.16304 -8.1001e-16
23.6617 -3.04286 -7.61254e-16
21.7168 -1.80388 -7.98177e-16
22.4711 -1.3373 -8.34625e-16
22.1525 -3.98549 -6.88358e-16
21.5002 -3.57223 -7.00666e-16
20.1183 2.13825 -8.03524e-16
19.4966 2.73493 -7.57431e-16
19.4812 1.66854 -8.05061e-16
19.4708 0.604968 -8.52691e-16
18.8414 1.1991 -8.06598e-16
20.7528 2.60729 -8.01986e-16
20.7443 1.54712 -8.49616e-16
18.8789 3.33548 -7.11339e-16
19.5184 3.80688 -7.09802e-16
17.9106 -44.7369 2.7671e-16
18.7634 -44.7494 2.7671e-16
18.3389 -43.9099 5.5342e-16
17.9223 -43.0586 8.3013e-16
18.7741 -43.0932 8.3013e-16
17.489 -45.5752 0
17.0569 -44.7245 2.7671e-16
19.6155 -44.7633 2.7671e-16
19.1956 -45.5752 0
19.8919 -43.9888 5.03136e-16
20.1748 -43.2165 7.29561e-16
19.4749 -43.1545 7.79846e-16
14.5524 -44.5999 2.88511e-16
15.41 -44.6147 2.88511e-16
15.0488 -43.6448 5.77022e-16
14.6941 -42.6701 8.65533e-16
15.5539 -42.7084 8.65533e-16
14.0646 -45.5752 0
13.6933 -44.5843 2.88511e-16
16.2662 -44.6288 2.88511e-16
15.7792 -45.5752 0
11.9935 -44.3313 3.05725e-16
11.6406 -43.1041 6.11449e-16
11.1283 -44.3087 3.05725e-16
10.6352 -45.5752 0
10.2597 -44.2877 3.05725e-16
12.8565 -44.3526 3.05725e-16
12.3469 -45.5752 0
11.2929 -41.8928 9.17174e-16
12.1728 -41.9279 9.17174e-16
3.31735 4.95659 -5.42578e-16
3.60985 4.13238 -5.66651e-16
3.97069 4.75101 -6.20232e-16
4.33096 5.36688 -6.73813e-16
4.62293 4.54716 -6.97886e-16
2.66278 5.16336 -4.64924e-16
3.02722 5.77805 -5.18505e-16
3.9044 3.30539 -5.90725e-16
3.24807 3.51096 -5.1307e-16
15.0805 2.56459 -8.37987e-16
14.6746 1.72779 -8.25519e-16
15.4279 1.99727 -8.48562e-16
16.1784 2.26973 -8.71605e-16
15.7771 1.43097 -8.59138e-16
14.7348 3.13311 -8.27411e-16
15.4864 3.3996 -8.50454e-16
14.269 0.888597 -8.13052e-16
13.9186 1.46121 -8.02476e-16
-1.0211 1.41544 -1.43689e-16
-1.87606 1.29761 -8.15611e-17
-1.46148 0.549432 -1.00994e-16
-0.202392 -1.58333 -1.12922e-16
0.22965 -2.19787 -1.01056e-16
0.648273 -1.4591 -1.59976e-16
1.49193 -1.32995 -2.07031e-16
-1.0607 -1.70182 -6.58671e-17
0.663022 -2.81348 -8.91906e-17
-0.194535 -2.94269 -4.2136e-17
-0.0306981 4.80391 -1.72341e-16
0.379418 4.05544 -2.34469e-16
0.912063 4.94841 -2.82553e-16
1.84881 5.09444 -3.92766e-16
0.790859 3.30266 -2.96596e-16
2.43313 3.43947 -4.40912e-16
2.14004 4.26884 -4.16839e-16
1.61418 3.36998 -3.68754e-16
1.08415 2.46648 -3.2067e-16
2.72793 2.60638 -4.64986e-16
-0.836533 -9.88745 4.07008e-16
-0.73492 -8.82784 3.31061e-16
-1.58224 -9.55425 3.86634e-16
-2.44932 -10.2924 4.42206e-16
-0.0937528 -10.2098 4.27382e-16
-0.934723 -10.9614 4.82954e-16
0.0947199 -8.11147 2.75489e-16
-5.18599 -12.7927 5.3627e-16
-4.18967 -13.0957 6.01084e-16
-4.18979 -11.9185 5.19729e-16
-4.17554 -10.7581 4.38374e-16
-3.22178 -11.0704 5.03188e-16
-6.20992 -13.701 5.52812e-16
-6.19833 -12.4674 4.71456e-16
-3.20776 -13.3788 6.65899e-16
-4.17085 -14.2869 6.8244e-16
-4.82618 -6.07637 1.20999e-16
-5.8362 -6.0814 9.0454e-17
-5.54941 -6.88541 1.50363e-16
-5.90333 -11.2459 4.09366e-16
-4.8875 -10.416 3.92824e-16
-5.60309 -10.0604 3.47275e-16
31.0798 -2.21911 -6.07846e-16
31.9065 -2.04128 -5.34757e-16
31.3362 -1.29895 -5.55765e-16
30.8193 -3.13771 -6.59927e-16
32.478 -2.78276 -5.1375e-16
29.4726 0.472301 -5.94552e-16
28.7825 0.905499 -5.92444e-16
28.6101 0.145402 -6.66521e-16
27.7451 -0.17407 -7.3849e-16
30.3319 0.807528 -5.22584e-16
28.0968 1.3448 -5.90337e-16
28.9542 1.66772 -5.18368e-16
-13.0862 -18.4667 1.66007e-16
-11.9428 -18.208 3.32014e-16
-12.5666 -17.0159 1.66007e-16
-13.1877 -15.7912 0
-13.5683 -19.9348 1.66007e-16
-14.2569 -18.7405 0
-11.3153 -19.3717 4.98021e-16
-12.3751 -22.269 5.65417e-16
-11.8612 -20.8094 5.31719e-16
-12.9736 -21.1127 3.65712e-16
-11.7729 -23.4047 7.65122e-16
-10.7715 -20.5176 6.97726e-16
-4.89635 -15.3077 7.44586e-16
-5.93267 -15.0346 6.79772e-16
-5.62194 -16.364 8.06733e-16
-5.28085 -17.685 9.33694e-16
-6.34341 -17.4581 8.6888e-16
-3.87893 -15.5639 8.09401e-16
-6.99067 -14.7433 6.14958e-16
-3.27397 -17.9361 9.68701e-16
-3.58774 -16.7528 8.89051e-16
-4.26831 -17.8146 9.51197e-16
-4.94333 -18.9082 1.01334e-15
-2.29623 -18.0497 9.86205e-16
-2.93877 -19.1117 1.04835e-15
-2.90455 -15.7213 8.26904e-16
22.2919 -35.2211 1.55696e-15
21.7268 -35.0842 1.6461e-15
21.861 -35.7372 1.63467e-15
21.9992 -36.3895 1.62325e-15
21.4321 -36.2574 1.71239e-15
22.8568 -35.3563 1.46781e-15
21.1613 -34.9458 1.73525e-15
14.1809 -40.5743 1.32148e-15
13.9947 -39.6602 1.4717e-15
13.3418 -40.3143 1.33869e-15
12.6932 -40.9803 1.20569e-15
12.4977 -40.0524 1.35591e-15
15.0154 -40.8325 1.30427e-15
14.3748 -41.4896 1.17126e-15
13.8171 -38.7461 1.62192e-15
14.6518 -39.0185 1.60471e-15
-4.54268 -39.2761 1.28507e-15
-4.86271 -37.9607 1.43901e-15
-5.53276 -39.1941 1.26944e-15
4.28978 -31.2534 1.75438e-15
4.38671 -30.2502 1.69833e-15
3.74125 -30.6397 1.7299e-15
3.09333 -31.0363 1.76146e-15
3.19378 -30.0193 1.70541e-15
4.83895 -31.8607 1.77887e-15
4.20657 -32.2632 1.81044e-15
4.49736 -29.2533 1.64228e-15
5.02978 -29.8678 1.66677e-15
-10.7587 -23.1117 8.76728e-16
-9.76226 -22.8271 9.88334e-16
-10.2724 -21.6822 8.4303e-16
-9.75848 -20.2761 8.09332e-16
-11.2175 -24.5626 9.10426e-16
-8.78317 -22.5512 1.09994e-15
-9.24064 -23.9522 1.13364e-15
-4.66976 -33.3883 1.78784e-15
-4.44677 -32.4183 1.81046e-15
-5.0499 -32.2998 1.79053e-15
-5.41164 -31.2001 1.79322e-15
-4.27306 -34.4673 1.78515e-15
-4.20906 -31.455 1.83308e-15
-3.84994 -32.5364 1.83039e-15
-0.964867 -13.8867 6.89163e-16
-0.942967 -12.9746 6.26736e-16
-1.68409 -13.7987 6.87718e-16
-2.4351 -14.6427 7.48699e-16
-2.41101 -13.7039 6.86273e-16
-0.252783 -13.9682 6.90608e-16
-0.977724 -14.8055 7.5159e-16
-0.913343 -12.0697 5.6431e-16
-0.212549 -12.1681 5.65755e-16
-5.414 -28.0839 1.63721e-15
-5.33499 -29.1025 1.68586e-15
-4.53334 -28.1845 1.64707e-15
-3.73165 -27.2904 1.60828e-15
-3.66519 -28.2836 1.65693e-15
-5.47586 -27.0627 1.58857e-15
-5.2385 -30.1179 1.7345e-15
-9.66871 -25.4486 1.17756e-15
-10.649 -25.775 1.06596e-15
-10.0667 -26.9646 1.22149e-15
-5.06792 -26.1195 1.53252e-15
-4.19784 -26.2478 1.54238e-15
-4.64929 -25.1903 1.47648e-15
-5.08541 -24.118 1.41057e-15
-4.22101 -24.2754 1.42043e-15
-5.95035 -25.9876 1.52267e-15
-3.3396 -26.3731 1.55224e-15
-4.63915 -20.004 1.10302e-15
-4.31718 -21.0906 1.19269e-15
-3.63027 -20.0876 1.12052e-15
-2.63847 -20.166 1.13802e-15
-5.66676 -19.9154 1.08551e-15
-3.97798 -22.1671 1.28236e-15
-4.99855 -22.1203 1.26485e-15
-3.0201 -24.2758 1.41488e-15
-3.61759 -24.2755 1.41766e-15
-3.18795 -25.3211 1.48356e-15
-2.74372 -26.3535 1.54946e-15
-2.83638 -23.2384 1.34621e-15
-2.42832 -24.2761 1.41211e-15
-4.03207 -23.2169 1.35175e-15
-8.43851 -17.5474 7.02973e-16
-7.37825 -17.5017 7.85926e-16
-7.72572 -16.1178 6.58966e-16
-9.12466 -19.024 7.46981e-16
-7.00025 -18.8693 9.12887e-16
-5.9792 -24.2418 1.38325e-15
-6.88712 -24.3697 1.35593e-15
-6.4223 -25.1853 1.4393e-15
-5.52649 -23.3139 1.32721e-15
-7.34474 -23.541 1.27256e-15
-5.89258 -22.2118 1.23753e-15
-6.24176 -21.0969 1.14786e-15
-6.8014 -22.306 1.21021e-15
-7.72588 -22.4032 1.18289e-15
-6.57319 -19.9699 1.05819e-15
-8.67282 -20.1691 8.92285e-16
-8.20622 -21.2954 1.03759e-15
-7.6116 -20.0673 9.75238e-16
-1.4252 -15.8654 8.29795e-16
-2.16045 -15.7962 8.28349e-16
-1.86563 -16.9466 9.08e-16
20.498 -30.7144 1.46155e-15
19.8292 -29.9013 1.43389e-15
19.7873 -31.002 1.52846e-15
19.0755 -31.2936 1.59536e-15
21.2077 -30.4307 1.39465e-15
19.1663 -29.0795 1.40623e-15
19.8838 -28.803 1.33933e-15
2.65999 -7.23514 1.40852e-16
2.7449 -6.02513 5.19641e-17
1.87374 -6.78446 1.30786e-16
0.987436 -7.55211 2.09608e-16
3.44567 -7.67575 1.50918e-16
2.57738 -8.4594 2.2974e-16
3.60273 -5.27326 -2.68579e-17
3.14456 -13.4487 5.67313e-16
2.57138 -13.5772 5.92302e-16
2.69587 -14.5678 6.57175e-16
2.83072 -15.5606 7.22048e-16
2.25104 -15.7043 7.47037e-16
3.59513 -12.3468 4.7745e-16
3.71346 -13.3195 5.42323e-16
1.99359 -13.7048 6.17292e-16
2.45617 -12.5893 5.27429e-16
-1.67854 -11.7494 5.43936e-16
-2.44799 -11.4165 5.23562e-16
-2.43629 -12.5543 6.04917e-16
1.59475 -15.2542 7.32319e-16
1.4679 -14.2458 6.67446e-16
0.938151 -14.7943 7.176e-16
0.281459 -14.3237 7.02881e-16
1.35193 -13.24 6.02573e-16
1.7454 -11.3871 4.61993e-16
2.1256 -10.428 3.8384e-16
1.23691 -11.0327 4.4972e-16
0.332793 -11.6452 5.15601e-16
0.728712 -10.6725 4.37448e-16
2.25414 -11.7358 4.74266e-16
1.36419 -12.3604 5.40146e-16
2.504 -9.48235 3.05686e-16
3.00045 -9.83026 3.17959e-16
12.7772 -32.2403 1.68401e-15
11.8605 -32.423 1.69874e-15
12.4156 -33.3703 1.72074e-15
12.9771 -34.3093 1.74274e-15
12.0685 -34.5155 1.75747e-15
13.1528 -31.1246 1.64728e-15
13.6892 -32.0623 1.66928e-15
10.9389 -32.6109 1.71347e-15
11.3124 -31.468 1.67674e-15
5.18334 -2.78682 -2.65472e-16
6.21701 -2.49361 -3.25428e-16
5.62889 -1.787 -3.55243e-16
6.07142 -0.797032 -4.45015e-16
4.73426 -3.79729 -1.75701e-16
7.24289 -2.19642 -3.85384e-16
6.8073 -3.19628 -2.95613e-16
15.3444 8.33456 -2.83702e-16
14.6859 7.60172 -4.36168e-16
15.4665 7.54982 -4.14938e-16
15.5966 6.77371 -5.46174e-16
14.0247 6.87023 -5.88634e-16
25.3934 4.92386 -1.63025e-16
25.4373 3.85603 -3.26051e-16
26.132 4.63994 -1.63025e-16
26.811 5.43739 0
24.6609 5.22626 -1.63025e-16
25.3693 5.99202 0
24.7343 3.06022 -4.89076e-16
22.3409 1.2672 -7.98798e-16
22.4541 0.53309 -7.98511e-16
23.1933 1.25584 -7.49804e-16
23.9302 1.98554 -7.01096e-16
24.0438 1.2474 -7.00809e-16
21.4873 1.28365 -8.47792e-16
22.229 2.00074 -7.99084e-16
22.5692 -0.200853 -7.98225e-16
21.712 -0.185942 -8.47219e-16
30.194 1.71998 -3.91411e-16
30.0591 2.6348 -2.60238e-16
29.5073 2.14598 -3.89303e-16
26.3443 1.27664 -6.58257e-16
27.0407 0.545834 -6.98374e-16
27.2208 1.30773 -6.24297e-16
25.4654 1.24348 -6.92218e-16
26.861 -0.215736 -7.7245e-16
23.8531 -1.02999 -7.7361e-16
23.9463 0.106165 -7.37209e-16
23.2103 -0.616445 -7.85917e-16
24.4976 -1.44147 -7.61302e-16
24.6789 0.831888 -6.88502e-16
23.3027 2.5923 -6.72884e-16
22.6763 3.1969 -6.44672e-16
22.4529 2.5987 -7.21878e-16
21.6035 2.61519 -7.70873e-16
24.1512 2.59187 -6.2389e-16
22.0545 3.80697 -6.16461e-16
22.8991 3.79584 -5.67466e-16
9.69925 -40.4292 1.24927e-15
10.4802 -40.1637 1.29501e-15
9.89247 -39.3267 1.41287e-15
10.1008 -38.2352 1.57648e-15
9.52311 -41.5422 1.08567e-15
11.2584 -39.9053 1.34076e-15
11.0728 -40.9891 1.17715e-15
2.07612 -25.3828 1.41163e-15
1.25721 -24.7677 1.38328e-15
1.30202 -25.9515 1.46259e-15
1.36705 -27.1361 1.54189e-15
0.523902 -26.5331 1.51354e-15
2.84636 -24.8268 1.36067e-15
2.893 -25.9845 1.43998e-15
0.436458 -24.1383 1.35493e-15
1.23226 -23.5857 1.30397e-15
-1.45806 -2.73163 -1.58887e-17
-1.86402 -3.77491 3.40897e-17
-1.02332 -3.36018 -4.02318e-18
2.38084 -3.08845 -1.31928e-16
1.93504 -2.20783 -1.69479e-16
1.52426 -2.95453 -1.10559e-16
4.8292 2.14147 -5.7403e-16
5.31409 1.45232 -5.58452e-16
5.62726 2.29872 -6.26495e-16
5.93993 3.13945 -6.94538e-16
6.42206 2.45876 -6.7896e-16
4.0276 1.98671 -5.21565e-16
4.34577 2.83102 -5.89608e-16
5.80052 0.763952 -5.42873e-16
4.99995 0.599953 -4.90408e-16
4.252 -7.00901 7.59909e-17
5.04849 -6.34873 1.06418e-18
4.32507 -5.81501 -1.28969e-17
4.40009 -4.63291 -1.01785e-16
4.18173 -8.21498 1.64879e-16
5.83634 -5.69463 -7.38626e-17
5.77316 -6.87387 1.50252e-17
9.28604 6.20791 -7.4738e-16
9.35283 7.13021 -6.83456e-16
8.66006 6.60714 -7.46089e-16
7.96594 6.08634 -8.08722e-16
9.91174 5.81245 -7.4867e-16
9.22312 5.28131 -8.11303e-16
10.0439 7.6566 -6.20824e-16
10.8284 7.23469 -6.34065e-16
10.7636 6.31236 -6.97988e-16
11.6119 6.81788 -6.47306e-16
12.4561 7.32929 -5.96623e-16
12.3936 6.40425 -6.60547e-16
10.8968 8.15388 -5.70142e-16
10.7023 5.3865 -7.61911e-16
31.956 -4.48209 -5.03788e-16
32.2188 -3.63254 -5.08769e-16
31.3876 -3.80943 -5.81858e-16
32.524 -5.15655 -4.25719e-16
33.049 -3.45499 -4.3568e-16
28.9546 -4.49123 -7.01123e-16
28.1677 -4.80531 -7.06933e-16
28.7025 -5.35557 -6.63419e-16
28.4496 -6.22084 -6.25716e-16
29.2052 -3.6276 -7.38826e-16
27.3793 -5.11963 -7.12743e-16
27.6339 -4.25414 -7.50447e-16
17.9128 -36.2875 1.84383e-15
17.1461 -35.9192 1.83113e-15
17.4078 -36.938 1.81722e-15
17.6789 -37.9546 1.80331e-15
16.9074 -37.5984 1.7906e-15
18.4218 -35.646 1.87045e-15
18.6781 -36.6517 1.85654e-15
16.3781 -35.5466 1.81842e-15
16.8944 -34.8979 1.84503e-15
17.0062 -28.4048 1.39577e-15
17.2306 -29.1763 1.45478e-15
17.8238 -28.5158 1.38741e-15
18.4195 -27.8632 1.32004e-15
18.6383 -28.6255 1.37904e-15
16.1855 -28.2923 1.40414e-15
16.7881 -27.6315 1.33676e-15
17.4611 -29.9458 1.51379e-15
16.6404 -29.8454 1.52216e-15
-0.790294 -41.7752 9.10249e-16
-1.81829 -41.8374 8.85157e-16
-1.43494 -43.0549 5.98469e-16
-2.07682 -44.358 2.86688e-16
-0.141506 -40.5191 1.22203e-15
-2.86287 -41.9034 8.60065e-16
-2.19943 -40.6167 1.17185e-15
-3.10531 -44.3444 2.86688e-16
-3.50795 -43.1065 5.73377e-16
-4.15376 -44.3309 2.86688e-16
-4.80294 -45.5752 0
-2.70287 -45.5752 0
0.285602 -34.7845 1.82487e-15
-0.410911 -34.0419 1.82216e-15
-0.461435 -35.1982 1.80521e-15
-0.494844 -36.3613 1.78826e-15
1.02787 -34.379 1.84454e-15
0.979702 -35.5186 1.82759e-15
-0.34225 -32.8923 1.83911e-15
-1.71041 -39.6374 1.3273e-15
-0.678381 -39.5983 1.3524e-15
-1.2159 -38.6726 1.48276e-15
-0.714785 -37.7227 1.63822e-15
0.338093 -39.5625 1.37749e-15
-3.40172 -33.6222 1.80362e-15
-2.53244 -32.7994 1.82208e-15
-3.18736 -32.6682 1.82624e-15
-4.63911 -30.2556 1.75443e-15
-4.04542 -30.3917 1.77436e-15
-3.8639 -29.3344 1.71564e-15
1.70185 -9.03731 2.9562e-16
0.898761 -8.58037 2.85555e-16
0.812056 -9.62057 3.61501e-16
0.29142 -13.4248 6.40454e-16
0.830406 -12.8891 5.903e-16
0.308893 -12.5318 5.78028e-16
7.36617 -16.9823 7.09156e-16
6.78257 -17.5008 7.60902e-16
7.35086 -17.7339 7.64386e-16
7.91769 -17.963 7.6787e-16
7.34129 -18.4876 8.19617e-16
7.38689 -16.2331 6.53925e-16
7.94715 -16.4694 6.57409e-16
6.19632 -18.025 8.12648e-16
6.21284 -17.2636 7.57417e-16
8.28323 -22.9123 1.12519e-15
7.34018 -22.7961 1.13468e-15
7.52621 -23.8084 1.20537e-15
7.72509 -24.8186 1.27606e-15
6.77187 -24.7211 1.28555e-15
9.04202 -22.0318 1.04501e-15
9.21884 -23.0249 1.1157e-15
6.38921 -22.6761 1.14416e-15
7.16684 -21.7822 1.06398e-15
19.9599 -1.57421 -7.93884e-16
20.5196 -1.11793 -8.2132e-16
19.7682 -0.854718 -8.23144e-16
19.017 -0.588118 -8.24968e-16
19.579 -0.134551 -8.52404e-16
20.1539 -2.29319 -7.64623e-16
19.3985 -2.03106 -7.66447e-16
21.0776 -0.661824 -8.48756e-16
21.2714 -1.37785 -8.19496e-16
16.6455 -23.8132 1.03558e-15
16.3868 -22.9104 9.68058e-16
16.0965 -23.7321 1.03955e-15
15.812 -24.5585 1.11104e-15
15.5459 -23.6503 1.04352e-15
17.1931 -23.8932 1.03161e-15
16.9124 -24.7134 1.1031e-15
16.1365 -22.0054 9.00538e-16
16.6829 -22.0936 8.96566e-16
18.2412 6.05368 -4.63091e-16
18.2079 7.10832 -2.97163e-16
17.6078 6.62361 -4.28399e-16
18.873 5.47323 -4.97782e-16
18.8137 7.59819 -1.65927e-16
14.4948 6.12854 -6.46138e-16
14.9708 5.39095 -7.03642e-16
15.2836 6.08245 -6.24908e-16
13.7037 6.17815 -6.67368e-16
14.658 4.69886 -7.82375e-16
19.5438 7.28136 -1.65927e-16
19.5799 6.23015 -3.31855e-16
20.2791 6.98088 -1.65927e-16
20.9638 7.74525 0
19.5249 8.33338 0
18.2677 1.58978 -8.13586e-16
18.2879 2.65783 -7.65957e-16
17.6953 1.98273 -8.20575e-16
17.1011 1.30904 -8.75193e-16
17.1241 2.37779 -8.27563e-16
18.2525 0.523287 -8.61216e-16
18.3138 3.7289 -7.18327e-16
13.5997 2.15934 -8.16873e-16
14.0103 2.99414 -8.2934e-16
13.2837 2.85863 -8.3127e-16
12.5546 2.72624 -8.33199e-16
12.9706 3.55903 -8.45666e-16
13.1892 1.32181 -8.04405e-16
14.4209 3.82666 -8.41808e-16
12.3163 9.44105 -2.91691e-16
11.6081 8.79424 -4.30916e-16
12.3837 8.38673 -4.44157e-16
24.1093 3.66766 -4.60864e-16
24.0693 4.74444 -2.97839e-16
23.4835 4.26221 -4.32653e-16
20.3657 3.80398 -6.78688e-16
20.9814 3.20449 -7.2478e-16
21.2103 3.80138 -6.47574e-16
27.9705 -7.86426 -4.98952e-16
27.304 -8.09077 -4.84945e-16
27.6198 -8.73536 -4.29709e-16
27.9372 -9.37894 -3.74473e-16
28.3215 -6.9947 -5.68195e-16
28.636 -7.6386 -5.12959e-16
26.9894 -7.44533 -5.40181e-16
18.7604 -2.08008 -7.44786e-16
18.5695 -1.35707 -7.74046e-16
18.1211 -2.12742 -7.23124e-16
17.6719 -2.8999 -6.72203e-16
17.4806 -2.17307 -7.01463e-16
18.9535 -2.80274 -7.15526e-16
18.3811 -0.633542 -8.03306e-16
6.87724 -43.2405 6.17684e-16
7.54111 -42.2911 8.77664e-16
7.00174 -41.8156 9.75388e-16
6.7699 -44.6516 2.5998e-16
8.08133 -42.7588 7.7994e-16
15.9634 -36.4323 1.79907e-15
15.5578 -37.3301 1.77972e-15
16.2336 -37.4646 1.78516e-15
16.5138 -38.4951 1.77126e-15
15.7037 -35.3978 1.81298e-15
15.162 -38.2407 1.76037e-15
14.8799 -37.1948 1.77428e-15
15.9397 -29.9228 1.535e-15
15.7077 -29.1423 1.47599e-15
15.2365 -30.0018 1.54785e-15
14.7721 -30.8713 1.6197e-15
14.5306 -30.0824 1.56069e-15
16.1779 -30.7012 1.59401e-15
15.482 -28.3597 1.41698e-15
14.2285 -10.3239 2.07994e-17
14.887 -9.75873 -4.27482e-17
14.103 -9.68063 -2.64272e-17
13.3169 -9.59916 -1.01062e-17
13.9796 -9.03798 -7.36538e-17
14.3563 -10.9676 6.80261e-17
13.5675 -10.8941 8.43471e-17
15.5431 -9.19824 -1.06296e-16
15.669 -9.83379 -5.90691e-17
6.16172 -4.85447 -1.47779e-16
6.48533 -4.02181 -2.21696e-16
5.44751 -4.32945 -1.6174e-16
6.87706 -5.37183 -1.33818e-16
7.51474 -3.71065 -2.81652e-16
6.04077 -11.3802 3.36981e-16
5.35636 -12.008 4.02294e-16
5.85945 -12.4184 4.17439e-16
6.36357 -12.824 4.32584e-16
5.68322 -13.4663 4.97896e-16
6.22586 -10.3518 2.56524e-16
6.71926 -10.7597 2.71669e-16
4.66567 -12.6433 4.67606e-16
4.85439 -11.5926 3.87149e-16
1.90373 0.979106 -3.29389e-16
2.31741 1.7953 -3.97187e-16
1.4932 1.72432 -3.25029e-16
2.31576 0.231277 -3.33749e-16
3.13715 1.86931 -4.69345e-16
6.81187 1.0233 -5.97484e-16
7.81763 1.28711 -6.52094e-16
7.11949 1.87068 -6.65527e-16
7.42706 2.71256 -7.3357e-16
6.50379 0.170083 -5.2944e-16
8.81819 1.55563 -7.06704e-16
8.5165 0.708352 -6.38661e-16
3.72683 6.14912 -5.85718e-16
4.37699 5.94394 -6.63372e-16
4.42397 6.51928 -6.5293e-16
5.11917 6.88818 -7.20143e-16
5.02617 5.74029 -7.41026e-16
3.21593 0.350066 -3.85969e-16
4.1105 0.472962 -4.38189e-16
3.62309 1.17127 -4.53767e-16
6.44408 4.56628 -7.63226e-16
6.59605 5.36609 -7.78333e-16
6.00772 5.03065 -7.64342e-16
5.41798 4.69524 -7.50351e-16
5.57217 5.49644 -7.65458e-16
6.88114 4.1034 -7.6211e-16
6.29362 3.76221 -7.48119e-16
6.74999 6.16176 -7.93441e-16
7.18314 5.70191 -7.92325e-16
9.4944 -10.0394 1.35754e-16
9.59817 -8.5649 2.05193e-17
8.6701 -9.4499 1.15828e-16
7.73297 -10.3479 2.11137e-16
7.84775 -8.85008 9.59028e-17
10.3205 -10.6192 1.55679e-16
9.39957 -11.527 2.50988e-16
9.70914 -7.10354 -9.4715e-17
10.5179 -7.69125 -7.47896e-17
22.5931 -37.1062 1.40962e-15
23.191 -37.8163 1.19599e-15
23.0176 -36.5864 1.3319e-15
22.1703 -37.6291 1.48733e-15
23.3755 -39.0458 1.06007e-15
19.5686 -33.7792 1.75242e-15
19.6025 -34.6776 1.80073e-15
20.0678 -34.2486 1.76661e-15
20.5684 -34.7143 1.7808e-15
19.0708 -33.306 1.73823e-15
19.6443 -35.5766 1.84903e-15
19.1384 -35.1106 1.83485e-15
22.3269 -40.3338 1.05356e-15
21.3887 -40.2456 1.24586e-15
21.6172 -41.0244 1.06837e-15
23.0438 -39.6543 1.03875e-15
21.166 -39.4652 1.42335e-15
20.2406 -35.8054 1.80349e-15
20.8365 -36.0324 1.75794e-15
20.7004 -35.3737 1.76937e-15
17.6188 -34.3581 1.80943e-15
18.379 -34.7365 1.82214e-15
18.3444 -33.8278 1.77383e-15
18.318 -32.9198 1.72553e-15
16.8576 -33.9751 1.79673e-15
18.5364 -30.8484 1.56817e-15
18.5808 -29.7354 1.47361e-15
17.9983 -30.3992 1.54098e-15
17.4189 -31.0714 1.60835e-15
18.5048 -31.9642 1.66274e-15
18.9357 -37.4989 1.78966e-15
18.44 -38.1498 1.76305e-15
19.1994 -38.3439 1.72279e-15
19.4691 -39.1868 1.65591e-15
17.9493 -38.8111 1.73643e-15
14.7311 -33.856 1.76917e-15
14.207 -32.9627 1.71922e-15
13.8557 -34.0795 1.75596e-15
13.5183 -35.2103 1.79269e-15
15.6034 -33.6383 1.78238e-15
15.2613 -34.7417 1.81911e-15
14.5714 -31.8591 1.68249e-15
-2.72038 -21.1845 1.20742e-15
-3.37924 -22.1886 1.27959e-15
-2.78647 -22.2091 1.27681e-15
-1.07449 -24.1015 1.37821e-15
-1.74767 -24.1883 1.39516e-15
-1.91183 -25.2123 1.46384e-15
-2.06067 -26.2429 1.53251e-15
-0.408345 -24.0158 1.36125e-15
3.19303 -10.6683 3.71123e-16
2.82468 -11.6222 4.49276e-16
3.39107 -11.5073 4.24287e-16
3.95357 -11.3911 3.99297e-16
3.5604 -9.727 2.92969e-16
14.6545 -28.1227 1.41104e-15
13.8235 -27.8824 1.4051e-15
14.171 -28.9845 1.4829e-15
13.6944 -29.8569 1.55475e-15
15.1445 -27.2711 1.33919e-15
12.9887 -27.6387 1.39916e-15
13.4884 -26.776 1.32731e-15
14.896 0.562816 -8.13568e-16
15.5233 0.240621 -8.14085e-16
15.6498 0.836292 -8.36611e-16
16.4009 1.11201 -8.59654e-16
14.1393 0.291594 -7.90525e-16
16.151 -0.0781398 -8.14601e-16
15.3974 -0.356125 -7.91558e-16
16.4322 3.50219 -8.06412e-16
16.7773 2.93986 -8.16988e-16
17.3749 3.61265 -7.6237e-16
17.2289 -1.60783 -7.36846e-16
17.6812 -0.838434 -7.87768e-16
16.9791 -1.04178 -7.7223e-16
16.2749 -1.24366 -7.56692e-16
16.7311 -0.474979 -8.07613e-16
16.7758 -2.37926 -6.85925e-16
18.1327 -0.0705021 -8.3869e-16
7.08542 -0.526621 -4.99625e-16
7.66889 -1.22001 -4.6981e-16
8.09324 -0.251991 -5.54235e-16
9.09537 0.0268464 -6.08846e-16
8.25439 -1.90958 -4.39994e-16
13.2127 4.43316 -7.86234e-16
13.9366 4.56461 -7.84304e-16
13.4569 5.30593 -7.26801e-16
12.9812 6.04856 -6.69297e-16
12.4859 4.30418 -7.88163e-16
11.9104 0.0348854 -7.01508e-16
10.9091 0.123696 -6.77324e-16
11.3023 -0.633432 -6.37193e-16
11.6984 -1.38897 -5.97061e-16
10.6917 -1.30477 -5.72877e-16
12.5164 0.700692 -7.65824e-16
12.9087 -0.0464586 -7.25693e-16
9.90441 0.220218 -6.5314e-16
10.5187 0.882076 -7.17456e-16
25.2889 -1.03206 -7.65018e-16
26.0767 -0.623074 -7.68734e-16
25.375 0.102112 -7.28618e-16
25.2061 -2.16185 -8.01418e-16
26.7843 -1.34221 -8.0885e-16
21.1599 -2.26234 -7.70741e-16
20.6014 -2.7213 -7.43304e-16
21.0502 -3.14763 -7.21985e-16
20.9418 -4.03412 -6.73229e-16
20.0412 -3.18107 -7.15868e-16
26.6018 -2.25177 -7.94773e-16
25.8112 -2.66309 -7.91057e-16
26.4185 -3.16167 -7.80696e-16
27.0279 -3.65778 -7.70335e-16
27.3895 -1.84093 -7.98489e-16
25.9129 -5.92749 -6.39733e-16
25.1085 -6.51537 -5.8073e-16
25.7806 -6.70513 -5.82213e-16
26.4527 -6.89369 -5.83695e-16
25.6486 -7.48414 -5.24692e-16
26.7148 -5.34172 -6.98737e-16
24.3015 -7.10536 -5.21727e-16
23.5691 -9.71836 -2.85608e-16
23.3374 -8.8222 -3.53894e-16
22.8217 -9.84033 -2.5583e-16
22.3073 -10.8641 -1.57766e-16
22.0727 -9.9626 -2.26052e-16
24.3152 -9.59658 -3.15386e-16
23.804 -10.6139 -2.17322e-16
23.1089 -7.92544 -4.22181e-16
23.8538 -7.80884 -4.51959e-16
12.3959 -3.50672 -4.62512e-16
11.6836 -3.30645 -4.54789e-16
11.5701 -4.34568 -3.69108e-16
11.4593 -5.39058 -2.83428e-16
10.7388 -5.1915 -2.75704e-16
13.2167 -2.67359 -5.55916e-16
13.1076 -3.70246 -4.70236e-16
10.9705 -3.10129 -4.47065e-16
11.7994 -2.27263 -5.40469e-16
28.5977 -3.03422 -7.58714e-16
27.9923 -2.43889 -7.78601e-16
27.8137 -3.34612 -7.64524e-16
27.2494 -5.89375 -6.55223e-16
27.1193 -6.66894 -5.97702e-16
27.7849 -6.44471 -6.11709e-16
25.8054 -12.0923 -1.31181e-16
26.3175 -11.199 -2.10939e-16
25.5569 -11.2614 -1.96407e-16
24.7952 -11.3242 -1.81874e-16
26.0576 -12.9217 -6.59551e-17
25.2953 -12.9897 -5.14226e-17
27.0769 -11.1376 -2.25472e-16
18.7009 -17.0633 4.44518e-16
18.9522 -16.1319 3.62556e-16
18.0521 -16.459 4.10958e-16
17.1482 -16.7888 4.5936e-16
17.406 -15.8491 3.77398e-16
19.3522 -17.6619 4.78079e-16
18.4556 -17.9999 5.26481e-16
19.2087 -15.2056 2.80594e-16
19.8489 -15.8082 3.14154e-16
28.7992 -9.21396 -3.64504e-16
29.66 -9.05071 -3.54536e-16
29.1471 -8.34528 -4.33747e-16
28.4524 -10.084 -2.95261e-16
30.1748 -9.75507 -2.75325e-16
24.529 -7.9976 -4.53441e-16
24.7596 -8.8892 -3.85155e-16
25.2041 -8.18517 -4.54923e-16
29.7642 -10.7905 -2.18769e-16
28.9026 -10.9568 -2.28737e-16
29.3565 -11.8274 -1.62213e-16
29.8145 -12.6957 -9.56881e-17
28.9522 -12.8664 -1.05656e-16
30.6245 -10.6271 -2.088e-16
28.0397 -11.1257 -2.38705e-16
27.5307 -12.0115 -1.58947e-16
27.024 -12.9013 -7.91889e-17
27.9888 -12.8826 -9.24227e-17
28.4517 -13.7508 -2.58982e-17
26.5199 -13.7952 5.69343e-19
21.2844 -8.56785 -3.20024e-16
21.6773 -9.26623 -2.73038e-16
22.198 -8.24604 -3.71102e-16
20.3679 -8.8911 -2.68946e-16
21.1575 -10.2924 -1.74974e-16
23.4618 -4.12842 -6.9189e-16
22.7067 -4.60171 -6.55442e-16
23.2633 -5.21523 -6.22525e-16
30.8514 -12.3587 -8.59051e-17
31.8864 -12.028 -7.61221e-17
31.2541 -11.328 -1.42461e-16
28.7608 -15.5053 6.63272e-17
28.0814 -16.382 1.34525e-16
28.7994 -16.4086 1.03589e-16
28.8442 -17.3108 1.4085e-16
28.7283 -14.6011 2.90657e-17
27.4054 -17.266 2.02723e-16
27.3627 -16.357 1.65461e-16
28.124 -18.976 2.36548e-16
28.4818 -18.1416 1.88699e-16
27.7614 -18.1227 2.19635e-16
21.1453 -13.5861 9.83726e-17
21.8271 -13.2693 5.45985e-17
21.5064 -12.614 8.3277e-18
21.1884 -11.9569 -3.79431e-17
21.8707 -11.6465 -8.17172e-17
20.7883 -14.5638 1.88418e-16
20.4621 -13.9054 1.42147e-16
22.5075 -12.9548 1.08244e-17
22.1507 -13.9227 1.00869e-16
20.3511 -10.5505 -1.31463e-16
19.9543 -9.84721 -1.78449e-16
19.5423 -10.8096 -8.79529e-17
19.1323 -11.7782 2.54359e-18
18.7309 -11.0699 -4.44424e-17
20.7509 -11.2515 -8.44775e-17
19.5603 -9.1418 -2.25435e-16
23.4763 -15.8056 2.25269e-16
24.1727 -14.7821 1.24948e-16
23.4904 -14.7324 1.35771e-16
22.8071 -14.6821 1.46594e-16
23.5118 -13.6602 4.62722e-17
23.4703 -16.8794 3.14768e-16
22.7839 -16.8377 3.25591e-16
24.8726 -13.7668 2.46262e-17
24.8539 -14.8317 1.14125e-16
11.8479 -11.166 1.54017e-16
12.7098 -11.0304 1.19182e-16
12.5842 -10.3783 7.19554e-17
12.461 -9.72677 2.47288e-17
11.1078 -11.9629 2.36079e-16
10.9813 -11.3005 1.88852e-16
12.8378 -11.6829 1.66409e-16
20.2686 -5.66819 -5.25187e-16
19.4957 -5.95226 -4.82459e-16
19.9121 -6.60131 -4.41193e-16
19.5559 -7.53923 -3.57198e-16
20.6255 -4.7392 -6.09182e-16
18.7204 -6.23664 -4.39731e-16
19.0816 -5.30121 -5.23726e-16
6.23541 7.79921 -6.84563e-16
6.77617 7.55808 -7.08995e-16
6.7615 8.38057 -6.34991e-16
5.7105 7.21486 -7.34134e-16
6.79529 6.73213 -7.82999e-16
5.50024 3.60756 -6.95654e-16
5.06123 4.07686 -6.9677e-16
4.70394 3.45547 -6.43189e-16
8.91153 -5.41054 -1.98879e-16
8.21096 -4.5645 -2.40266e-16
7.89681 -5.39518 -1.66349e-16
7.58176 -6.23281 -9.24321e-17
9.92145 -5.41852 -2.3141e-16
9.61688 -6.24822 -1.57493e-16
8.52425 -3.74042 -3.14182e-16
7.75591 -7.97473 3.31245e-17
8.69101 -7.10631 -6.21844e-17
7.66739 -7.10229 -2.96538e-17
6.63794 -7.09059 2.87678e-18
6.81055 -8.85476 1.28433e-16
9.34351 -3.52955 -3.58476e-16
10.0391 -4.3642 -3.1709e-16
10.1589 -3.31647 -4.02771e-16
10.2808 -2.27502 -4.88451e-16
8.65197 -2.68771 -3.99863e-16
15.7526 -1.79135 -6.99583e-16
15.2287 -2.34079 -6.42474e-16
16.0031 -2.36161 -6.642e-16
16.2555 -2.93115 -6.28816e-16
15.5038 -1.22044 -7.34966e-16
14.7032 -2.89207 -5.85366e-16
14.4525 -2.31673 -6.20749e-16
7.38592 -12.388 3.72052e-16
8.39763 -11.9559 3.1152e-16
7.55753 -11.3636 2.91595e-16
7.21911 -13.421 4.52509e-16
9.23921 -12.5373 3.31445e-16
5.06141 -8.43767 1.5273e-16
5.9376 -8.65074 1.40582e-16
5.85378 -7.76045 7.78035e-17
4.25982 -9.12258 2.27657e-16
6.02509 -9.54461 2.0336e-16
18.9923 -39.8924 1.52871e-15
18.2323 -39.7114 1.56897e-15
18.5225 -40.6105 1.40151e-15
18.0596 -41.3401 1.2743e-15
17.4705 -39.529 1.60923e-15
22.4364 -38.9482 1.25238e-15
21.8321 -38.2369 1.46601e-15
21.4972 -38.8486 1.44468e-15
17.1346 -42.944 8.41931e-16
16.3452 -42.8273 8.53732e-16
16.6968 -43.7802 5.65221e-16
17.5794 -42.1196 1.11864e-15
16.0011 -41.8692 1.14224e-15
12.8782 -37.4241 1.6342e-15
12.6778 -38.7327 1.49505e-15
13.3462 -38.0881 1.62806e-15
14.0181 -37.4564 1.76107e-15
12.413 -36.754 1.64033e-15
13.0979 -36.1275 1.77334e-15
12.0128 -39.3903 1.36204e-15
10.4794 -28.0675 1.46047e-15
10.6964 -29.2027 1.52971e-15
11.274 -27.9204 1.43718e-15
11.8667 -26.6565 1.34466e-15
12.064 -27.7758 1.41389e-15
9.6798 -28.2171 1.48376e-15
10.2767 -26.9306 1.39124e-15
10.9274 -30.3362 1.59894e-15
10.1352 -30.5047 1.62223e-15
1.6854 -20.8217 1.10811e-15
2.48315 -20.3122 1.05652e-15
2.16967 -19.2704 9.92179e-16
2.6747 -17.7452 8.76251e-16
1.22589 -22.3996 1.22404e-15
3.27376 -19.812 1.00493e-15
2.81106 -21.3474 1.12086e-15
17.7697 -32.4788 1.69834e-15
17.2222 -32.0337 1.67114e-15
17.0351 -33.0016 1.73394e-15
16.3011 -33.5337 1.76954e-15
16.6754 -31.5845 1.64395e-15
15.2752 -31.7656 1.66965e-15
15.7849 -32.6531 1.71959e-15
15.9764 -31.6741 1.6568e-15
5.34147 -10.1532 2.68672e-16
4.45311 -9.9451 2.80821e-16
4.65115 -10.7686 3.33985e-16
3.79347 -14.8502 6.47331e-16
4.74399 -14.1523 5.72613e-16
4.22821 -13.7387 5.57468e-16
3.36335 -15.9781 7.37193e-16
5.2607 -14.5604 5.87758e-16
8.66761 -13.4359 4.14262e-16
7.65632 -13.8855 4.74794e-16
8.09529 -14.346 4.97078e-16
8.53605 -14.8026 5.19363e-16
7.52268 -15.2686 5.79894e-16
9.66935 -12.9911 3.5373e-16
6.6346 -14.3406 5.35326e-16
18.7547 -14.4956 2.34059e-16
18.3046 -13.7819 1.87525e-16
17.8529 -14.8116 2.82461e-16
16.9473 -15.1302 3.30863e-16
19.6532 -14.1827 1.85657e-16
17.8582 -13.0646 1.40991e-16
18.7602 -12.7599 9.25885e-17
8.20847 3.11194 -7.49968e-16
8.90124 2.53712 -7.36535e-16
8.9869 3.51316 -7.66365e-16
9.07551 4.48394 -7.96195e-16
9.76248 3.91673 -7.82763e-16
7.51624 3.6912 -7.634e-16
9.59455 1.96679 -7.23102e-16
10.2802 2.57453 -7.61683e-16
10.9635 3.18184 -8.00264e-16
10.3632 3.54776 -7.91513e-16
10.4495 4.51664 -8.21344e-16
10.2003 1.59676 -7.31853e-16
11.6445 3.78925 -8.38845e-16
11.5637 2.81898 -8.09014e-16
16.977 0.715023 -8.52666e-16
16.8537 0.120429 -8.3014e-16
17.5543 0.320847 -8.45678e-16
20.9646 0.0742627 -8.49043e-16
20.8535 0.810569 -8.49329e-16
20.2175 0.337857 -8.50867e-16
24.6169 -12.9334 -4.05996e-17
24.3655 -12.0983 -1.05825e-16
23.9376 -12.8768 -2.97766e-17
23.2575 -12.8199 -1.89535e-17
24.1181 -11.262 -1.71051e-16
22.9381 -12.1696 -6.52243e-17
23.3704 -11.3895 -1.41273e-16
22.6214 -11.5177 -1.11495e-16
25.1347 -15.6933 1.69089e-16
24.447 -16.7144 2.6941e-16
25.4212 -16.5522 2.24052e-16
26.3933 -16.3934 1.78695e-16
25.7135 -17.4085 2.79016e-16
25.8267 -14.6802 6.8767e-17
23.7641 -17.7441 3.69732e-16
22.1289 -15.0033 1.90368e-16
21.4495 -15.3275 2.34142e-16
22.1146 -16.0855 2.79866e-16
22.1086 -17.1685 3.69365e-16
20.7689 -15.655 2.77916e-16
24.9105 -21.5797 5.9952e-16
24.4375 -22.0634 6.55938e-16
25.0374 -22.382 6.33642e-16
25.1703 -23.1828 6.67765e-16
24.7895 -20.7763 5.65398e-16
23.9658 -22.5514 7.12355e-16
23.8382 -21.7429 6.78233e-16
21.1929 -17.3313 4.05603e-16
20.5187 -16.573 3.59878e-16
20.2742 -17.4958 4.41841e-16
20.0358 -18.4234 5.23803e-16
21.8719 -18.0829 4.51327e-16
20.2845 -19.4627 6.0122e-16
20.5425 -20.4992 6.78637e-16
21.2029 -19.2856 5.64982e-16
22.1182 -19.1107 5.28744e-16
19.3627 -19.6417 6.37458e-16
20.8105 -21.5324 7.56053e-16
19.8914 -21.7241 7.92291e-16
19.5721 -12.4904 4.9078e-17
20.0153 -13.1996 9.56123e-17
20.3814 -12.2228 5.56742e-18
14.165 -24.512 1.13767e-15
13.7229 -24.0399 1.10873e-15
13.5097 -25.018 1.18925e-15
13.3065 -26.002 1.26978e-15
12.8539 -25.5309 1.24084e-15
14.82 -24.013 1.08608e-15
14.6087 -24.9806 1.1666e-15
13.2824 -23.564 1.07979e-15
13.9459 -23.0679 1.0282e-15
14.0265 -16.1429 4.83509e-16
14.0397 -17.1836 5.6473e-16
14.8581 -16.4995 4.91346e-16
15.674 -15.8238 4.17962e-16
15.6884 -16.8503 4.99184e-16
13.1937 -15.78 4.75671e-16
14.0217 -15.1049 4.02287e-16
14.0622 -18.2269 6.45951e-16
13.2191 -17.8774 6.38114e-16
24.1614 -20.1882 5.41925e-16
23.5365 -19.5955 5.18452e-16
23.6821 -20.6702 5.98343e-16
23.2038 -21.1562 6.5476e-16
24.6419 -19.7103 4.85507e-16
22.9145 -18.9981 4.94979e-16
23.4011 -18.5183 4.38562e-16
17.7811 -18.6362 5.93732e-16
17.1211 -18.0335 5.60172e-16
17.1071 -19.2804 6.60983e-16
17.1073 -20.5299 7.61795e-16
16.4335 -19.9323 7.28234e-16
18.4436 -19.2328 6.27292e-16
16.4637 -17.4247 5.26611e-16
20.6689 -25.0243 1.0093e-15
20.439 -26.3196 1.11979e-15
21.4339 -25.9826 1.0384e-15
22.2069 -26.9301 1.0675e-15
19.9119 -24.0554 9.80199e-16
20.2258 -27.6214 1.23028e-15
19.4412 -26.663 1.20118e-15
18.0368 -20.9338 7.7196e-16
18.9648 -21.3317 7.82126e-16
18.6992 -20.2835 7.04709e-16
17.3757 -21.5925 8.39211e-16
19.2411 -22.3771 8.59543e-16
14.8513 -18.8034 6.73379e-16
15.6418 -19.3717 7.00807e-16
15.6581 -18.1094 5.99995e-16
14.0435 -19.5074 7.46763e-16
15.6404 -20.6372 8.01618e-16
12.4927 -17.391 6.17415e-16
12.4816 -16.3354 5.36193e-16
11.7669 -16.8975 5.96715e-16
11.0492 -17.4661 6.57238e-16
11.0418 -16.3968 5.76016e-16
12.5137 -18.4494 6.98636e-16
12.4796 -15.283 4.54972e-16
7.66429 4.49364 -7.78508e-16
8.44493 4.88603 -7.94905e-16
7.81407 5.29197 -7.93615e-16
5.66307 6.64383 -7.44576e-16
5.61703 6.07106 -7.55017e-16
6.20667 6.40154 -7.69008e-16
18.6303 -3.50768 -6.51478e-16
17.9881 -3.55812 -6.29817e-16
18.3069 -4.21501 -5.87431e-16
18.628 -4.87068 -5.45045e-16
17.9833 -4.92515 -5.23384e-16
19.2713 -3.45573 -6.7314e-16
