ply
format ascii 1.0
comment Created by Open3D
element vertex 1669
property double x
property double y
property double z
end_header
-16.3216 -12.6983 0
-14.7987 -14.9058 0
-13.4525 -17.0979 0
-12.334 -19.3243 0
-11.4598 -21.6347 0
-10.8094 -24.065 0
-10.3492 -26.6204 0
-10.0427 -29.2935 0
-9.85307 -32.0655 0
-9.69885 -35.0058 0
-9.37707 -38.4596 0
-8.46974 -42.1844 0
-6.55612 -44.727 0
-3.78729 -45.5407 0
-0.760593 -45.5752 0
2.24209 -45.5752 0
5.20477 -45.5752 0
8.01019 -45.5752 0
11.1984 -45.5752 0
14.272 -45.5752 0
17.353 -45.5752 0
20.3913 -45.5062 0
23.0553 -45.3998 0
25.0343 -43.7989 0
25.9504 -40.8767 0
26.3179 -37.5878 0
26.5463 -34.2466 0
26.7788 -30.7813 0
27.0755 -27.0723 0
27.4096 -22.929 0
-12.8249 -10.0902 -2.55708e-16
-11.941 -11.8857 -4.33309e-16
-13.5742 -11.3257 -1.77602e-16
-13.4018 -14.5539 -1.77602e-16
-14.1587 -13.4261 -1.77602e-16
-12.5634 -15.7337 -2.20425e-16
-11.9056 -16.8857 -2.20425e-16
-8.58772 -18.4174 -2.57231e-16
-8.12235 -19.7082 -1.71842e-16
-9.50789 -19.5216 -1.63122e-16
-14.9613 -11.7031 0
-11.5477 -9.1823 -2.55708e-16
-11.853 -14.2952 -3.98027e-16
-9.89638 -11.2408 -6.59424e-16
-9.98497 -9.82476 -5.34158e-16
-8.69738 -10.4211 -6.82166e-16
-10.0767 -21.8353 -3.88663e-17
-8.52946 -22.1228 2.22242e-17
-9.55764 -23.1462 6.10905e-17
-4.5447 -3.35347 -2.62472e-16
-5.736 -4.32527 -2.62472e-16
-1.71896 -5.46996 -7.51794e-16
-3.37344 -5.92548 -6.82412e-16
-2.65428 -4.27026 -5.94327e-16
-8.69531 -28.3834 2.43999e-16
-9.25466 -27.1263 1.19818e-16
-7.77366 -27.5302 3.63816e-16
-8.57522 -29.7785 2.43999e-16
-6.53569 -37.5218 1.10027e-15
-6.00133 -38.7402 1.19038e-15
-7.1495 -39.1134 8.69704e-16
-4.23619 -44.1166 5.42121e-16
-2.72639 -44.1424 5.42121e-16
-6.99152 -24.5857 2.72007e-16
-7.16513 -26.0034 3.30734e-16
-8.16596 -24.891 1.80908e-16
-7.20693 -42.17 4.79907e-16
-6.01841 -41.4323 9.36504e-16
-6.60922 -43.2699 4.56597e-16
-5.3631 -44.0131 4.56597e-16
-4.29386 -42.6281 9.98718e-16
3.17472 -43.996 6.23561e-16
1.68262 -44.0116 6.23561e-16
-0.907746 -41.249 1.45464e-15
-0.214313 -40.033 1.76556e-15
0.268018 -41.5306 1.45767e-15
-2.07257 -38.5924 1.76791e-15
-2.76839 -39.8904 1.66087e-15
-3.45181 -38.7285 1.66625e-15
-9.27674 -24.4503 6.10905e-17
6.32823 8.52454 -2.62346e-16
5.34675 7.01856 -2.62346e-16
14.4826 7.88108 -2.2033e-16
12.1336 9.8162 -2.2033e-16
9.20063 13.2347 0
10.2838 11.2712 -1.40404e-16
7.65461 12.0404 -1.40404e-16
8.21579 8.24142 -4.02749e-16
6.72902 10.3727 -1.40404e-16
16.4067 0.459541 -5.0147e-16
19.0602 0.129643 -3.43047e-16
18.4855 -2.54439 -4.23779e-16
24.2933 -4.59503 -1.32678e-16
22.2234 -0.372264 -1.32678e-16
25.7053 -24.0226 1.50655e-16
26.0696 -25.9333 1.78425e-16
24.5365 -24.902 3.2908e-16
3.97771 5.93155 -2.5813e-16
3.00706 4.58415 -2.5813e-16
19.4846 3.22836 -2.10369e-16
24.4978 -28.3481 4.51743e-16
23.2186 -28.1983 5.96053e-16
23.6184 -26.6105 5.0116e-16
19.0616 -38.5741 1.79206e-15
19.6515 -39.8871 1.65831e-15
18.4969 -39.5705 1.7494e-15
19.7128 -35.478 1.58449e-15
20.8147 -35.6743 1.4062e-15
20.5878 -36.9727 1.56838e-15
23.5658 -43.0834 4.23222e-16
22.3294 -43.4437 4.23222e-16
21.9015 -31.9488 9.10233e-16
21.6349 -34.0629 1.12833e-15
20.1816 -32.0356 1.20421e-15
19.4117 -44.3948 4.52851e-16
20.9512 -44.3736 4.52851e-16
23.7335 -35.7902 7.92868e-16
24.9074 -34.9661 4.1718e-16
25.2707 -36.7622 3.75688e-16
25.1497 -38.41 3.75688e-16
24.1888 -41.8584 4.23222e-16
24.4239 -40.2485 4.23222e-16
25.3791 -31.2312 2.73318e-16
25.4945 -29.426 2.73318e-16
18.4573 -36.0542 1.7183e-15
18.6743 -34.7347 1.55612e-15
-5.3711 -20.1261 -7.30081e-17
-4.4977 -21.0089 4.18982e-17
-5.79848 -21.82 8.46358e-17
-6.51068 -5.58478 -3.04932e-16
-7.7499 -6.50414 -3.04932e-16
-10.4135 -8.30459 -2.7845e-16
2.64313 2.67991 -3.26051e-16
4.40275 2.2225 -5.84181e-16
26.2315 -19.4792 5.49571e-17
26.3925 -16.7439 5.49571e-17
-8.58084 -35.8616 3.9941e-16
-8.66041 -34.3184 3.9941e-16
-7.31087 -30.488 5.76012e-16
-8.66938 -31.4079 3.32014e-16
14.0113 0.398034 -6.57609e-16
14.2159 2.80098 -5.76877e-16
25.8151 -21.7971 1.50655e-16
21.3371 -42.2215 8.76073e-16
22.1901 -39.1938 1.11827e-15
22.8965 -37.3732 1.07073e-15
23.39 -39.406 7.9891e-16
6.103 -42.4796 1.24418e-15
6.89876 -43.6673 7.15408e-16
5.87173 -44.3746 5.28768e-16
-0.848339 -28.5562 9.38883e-16
-2.09102 -28.5127 9.09445e-16
-0.91677 -27.0384 7.82473e-16
-4.62004 -17.6689 -2.95288e-16
-5.6428 -18.903 -1.90848e-16
-6.19119 -17.3702 -3.7039e-16
-11.4253 -18.2109 -1.24256e-16
-10.9014 -19.4003 -1.24256e-16
-11.6285 -13.049 -5.32452e-16
-10.7289 -14.2979 -5.75276e-16
-10.4726 -20.5942 -3.88663e-17
-6.49555 -23.12 1.60862e-16
-5.45554 -24.2361 3.10687e-16
-1.6705 -31.172 1.20465e-15
-0.747289 -30.7326 1.17074e-15
-0.382306 -31.9281 1.30953e-15
-5.38195 -40.1781 1.25951e-15
-4.76543 -38.5612 1.49008e-15
-7.88127 -40.3685 4.79907e-16
-4.78436 -41.2791 1.2362e-15
-3.65825 -41.3567 1.32173e-15
7.99018 3.9013 -6.68629e-16
9.84167 4.55474 -6.28854e-16
10.0333 2.00092 -7.72791e-16
25.7785 -13.7068 -1.9566e-17
25.4906 -9.64449 -1.9566e-17
24.4651 -20.7097 2.05612e-16
18.6784 -43.1488 1.00627e-15
18.2216 -41.9551 1.36124e-15
19.5433 -42.0679 1.26068e-15
22.2452 -29.8586 7.6637e-16
23.715 -31.9566 6.90498e-16
24.9894 -33.2645 4.1718e-16
20.0315 -27.7072 8.60378e-16
18.5675 -28.1949 9.27907e-16
18.1443 -25.9893 8.02179e-16
0.462891 -29.2843 1.04377e-15
16.8921 -6.90539 -4.15702e-16
17.3363 -9.54727 -2.76165e-16
15.6772 -8.39683 -3.86637e-16
-9.44372 -25.7858 1.19818e-16
-4.43694 -36.1934 1.49983e-15
-5.3283 -35.5117 1.33309e-15
-4.38125 -34.5615 1.41198e-15
-8.41447 -39.15 3.89797e-16
-8.6508 -37.2214 3.89797e-16
-7.61017 -36.5267 7.89207e-16
-6.46029 -36.137 1.10988e-15
-3.12074 -36.3309 1.676e-15
-4.07003 -37.2816 1.59711e-15
-2.2801 -41.2496 1.42339e-15
-1.79426 -42.7294 1.1155e-15
-1.3506 -44.1683 5.73377e-16
10.4603 8.8237 -3.60734e-16
9.89435 6.84747 -4.82676e-16
22.5178 -35.5866 1.11222e-15
12.3281 -4.93216 -6.38251e-16
10.5024 -5.19377 -6.58974e-16
10.2576 -2.61485 -7.7698e-16
24.1556 -15.5602 3.5391e-17
25.9307 -27.889 1.78425e-16
22.5458 -22.967 4.05145e-16
21.2749 -21.0579 3.71319e-16
22.8617 -20.9893 2.67484e-16
-0.0891344 -36.1436 1.72726e-15
-0.108821 -37.4278 1.8447e-15
-1.04008 -36.1565 1.73558e-15
3.85057 -42.8053 1.15233e-15
3.88224 -41.4078 1.49577e-15
5.109 -41.785 1.40098e-15
21.3628 -28.1744 8.15787e-16
23.2081 -24.7303 4.7339e-16
21.674 -24.7754 5.77225e-16
-0.275368 -38.6066 1.79946e-15
0.901354 -38.8679 1.80249e-15
-9.15321 -7.40323 -2.7845e-16
-10.8045 -11.859 -6.10559e-16
-1.78953 -1.78435 -3.31855e-16
-1.16128 -0.225641 -2.69627e-16
-0.261873 -2.26426 -6.01482e-16
-7.31819 -22.255 4.59552e-17
-0.0793438 0.894809 -2.69627e-16
9.50759 -9.44381 -4.83921e-16
10.3512 -7.39704 -5.86077e-16
11.368 -9.69123 -4.18088e-16
6.96945 -3.68291 -8.22317e-16
8.58923 -5.20599 -7.24806e-16
6.99515 -5.74644 -7.49421e-16
2.63237 -4.55819 -8.51153e-16
0.898057 -4.95115 -7.58969e-16
0.660007 -3.31797 -7.55894e-16
16.5797 -44.3134 5.5342e-16
18.13 -44.3273 5.5342e-16
13.6114 -44.1741 5.77022e-16
15.1513 -44.1809 5.77022e-16
10.5918 -43.8674 6.11449e-16
12.1214 -43.8676 6.11449e-16
-9.98926 -14.7988 -5.96159e-16
-8.54832 -15.0672 -6.44305e-16
-9.58268 -15.776 -4.88997e-16
-1.20119 -7.13978 -8.6103e-16
-0.280588 -8.69087 -8.36095e-16
-1.59556 -8.60804 -8.14944e-16
-6.89794 -19.7729 -1.48111e-16
-7.86958 -20.8564 -5.40015e-17
-10.4586 -16.9025 -3.44681e-16
-9.05633 -17.2 -3.92828e-16
-4.70785 -25.3953 4.6258e-16
-4.18213 -23.8689 3.51435e-16
-6.59055 -27.2914 4.54915e-16
-5.10823 -26.8186 5.84543e-16
-5.73711 -28.406 6.17626e-16
12.1263 4.88713 -5.86838e-16
6.24692 5.22188 -5.20476e-16
6.50116 2.87775 -6.64413e-16
-8.60346 -32.8362 3.32014e-16
-7.47421 -33.6533 7.31424e-16
-4.53381 -29.463 8.71547e-16
-6.02488 -29.8753 7.41919e-16
-3.44118 -30.49 1.03085e-15
-3.14031 -28.9591 9.06554e-16
20.956 -38.0398 1.54553e-15
19.8581 -37.849 1.72382e-15
13.0131 -42.4625 1.18847e-15
12.6381 -41.1192 1.48891e-15
14.1317 -41.4442 1.45449e-15
4.30597 -36.4764 1.78595e-15
4.22986 -35.0833 1.67385e-15
5.21523 -35.7498 1.72282e-15
-6.34395 -33.0177 9.54636e-16
-6.40835 -34.5392 1.02203e-15
-1.90729 -37.4313 1.81315e-15
-1.22453 -38.5994 1.80777e-15
-3.20716 -27.4964 7.50144e-16
-3.82456 -26.517 6.25291e-16
-2.78722 -26.0297 6.28182e-16
-2.25644 -35.0619 1.59843e-15
-1.88961 -36.1679 1.69571e-15
-3.22309 -34.0699 1.46662e-15
-1.99051 -33.8775 1.48633e-15
-2.49707 -31.4574 1.21019e-15
-3.89638 -31.9157 1.17518e-15
-1.16242 -33.6164 1.48079e-15
-2.13515 -32.627 1.34898e-15
-6.12726 -31.5732 8.29934e-16
-4.11905 -33.4047 1.29989e-15
-5.05216 -32.4307 1.12054e-15
17.191 -33.4464 1.5008e-15
18.4348 -32.8412 1.36699e-15
-3.46766 -22.3841 2.19674e-16
-2.99936 -20.6244 6.20299e-17
0.196764 -25.3345 6.32186e-16
-0.542298 -25.9761 6.82165e-16
-0.711944 -24.2698 5.0244e-16
-1.79311 -25.9806 6.52727e-16
-2.4349 -24.9879 5.27874e-16
-2.67554 -23.5743 3.71567e-16
-1.67744 -23.4813 3.96112e-16
12.3824 -36.407 1.70601e-15
10.8536 -36.8825 1.73547e-15
11.2341 -35.0588 1.66201e-15
-3.62457 -16.0658 -4.15199e-16
-3.03126 -17.6919 -2.35657e-16
-5.07957 -6.03049 -5.67404e-16
1.58587 1.4669 -3.26051e-16
3.163 -1.29381 -7.5009e-16
4.76089 -1.97091 -7.49517e-16
3.89895 -3.55103 -8.47506e-16
5.97853 0.904176 -7.32334e-16
6.21204 -1.25216 -7.24902e-16
1.40103 -1.76475 -6.93667e-16
2.12022 -0.178907 -5.95678e-16
9.18244 -41.437 1.36713e-15
10.4937 -41.0028 1.45862e-15
10.2106 -42.5819 1.13141e-15
2.48053 -33.3656 1.49094e-15
1.04051 -32.9561 1.43424e-15
1.98988 -31.8772 1.33232e-15
-7.40755 -14.8825 -6.42073e-16
-5.93041 -14.863 -6.10916e-16
-6.69526 -16.0731 -5.05987e-16
-2.56722 -19.0018 -8.78236e-17
-1.46272 -20.4191 8.9952e-17
-7.36566 -11.279 -8.10012e-16
-7.44143 -9.81698 -6.84747e-16
-7.37198 -8.11791 -5.83383e-16
-5.95893 -8.99669 -7.11229e-16
14.3603 5.29397 -4.307e-16
13.9617 -2.06456 -6.69229e-16
12.1095 0.126647 -7.44637e-16
17.0605 -39.3072 1.82992e-15
15.6059 -38.8114 1.80451e-15
16.4398 -37.7366 1.85774e-15
15.416 -31.4941 1.3284e-15
16.0746 -32.7697 1.44642e-15
14.5637 -32.7656 1.46315e-15
0.159649 -44.1531 5.73377e-16
1.10335 -42.586 1.19694e-15
2.02487 -39.6478 1.80792e-15
1.96653 -38.1968 1.84182e-15
1.7938 -41.3618 1.50786e-15
4.67195 -25.2859 7.1264e-16
4.09516 -26.4544 8.16132e-16
3.64145 -25.3923 7.05671e-16
6.89523 -30.0514 1.19588e-15
5.34486 -30.374 1.21486e-15
6.14598 -28.6543 1.0545e-15
4.27812 -6.84216 -7.95707e-16
4.11823 -5.28817 -8.5058e-16
5.66175 -5.91796 -7.9206e-16
13.6916 -28.9359 1.10707e-15
12.8145 -27.4249 9.72029e-16
13.8214 -27.3498 9.64087e-16
-2.95688 -2.80712 -3.31855e-16
-4.23424 -7.16276 -7.24872e-16
1.45084 -6.71755 -8.68204e-16
-0.386462 -5.48264 -7.72945e-16
-2.21303 -9.86325 -8.18802e-16
-3.06243 -8.37927 -8.43737e-16
17.5342 -4.95983 -4.43716e-16
15.6099 -4.02344 -5.54188e-16
5.01498 -8.62368 -6.93864e-16
3.56977 -7.94785 -7.52385e-16
8.02118 -42.3894 1.23537e-15
7.76216 -44.2806 5.1996e-16
14.9813 -40.2287 1.76581e-15
14.3712 -38.6663 1.79363e-15
13.9841 -34.2883 1.60685e-15
13.3415 -33.0556 1.48884e-15
6.21127 -17.4913 3.71204e-17
6.66792 -15.84 -8.99748e-17
7.56122 -16.72 4.47847e-18
-1.48696 -17.3977 -2.07735e-16
1.58866 -22.1965 3.52126e-16
1.0849 -23.6501 4.82751e-16
0.504673 -22.1711 3.21836e-16
-7.64473 -17.3284 -4.01547e-16
-5.07673 -13.238 -7.20137e-16
-4.30603 -14.4979 -5.84051e-16
-9.73064 -13.5426 -7.30584e-16
-7.83697 -13.8503 -7.49235e-16
-8.79051 -12.9649 -7.79449e-16
-7.65132 -12.7347 -7.77217e-16
2.74873 -20.6223 2.31063e-16
1.48324 -18.5424 5.93866e-19
3.30015 -18.3972 4.04448e-17
21.4491 -40.042 1.2737e-15
18.698 -37.5176 1.81492e-15
17.6728 -36.8035 1.78654e-15
20.8688 -41.0059 1.23105e-15
16.2019 -36.272 1.76113e-15
16.3171 -34.6667 1.63554e-15
17.639 -40.6074 1.69617e-15
13.4779 -37.7082 1.8059e-15
13.877 -35.9103 1.73244e-15
-0.23505 -33.2054 1.44688e-15
-0.966509 -22.8093 3.46133e-16
11.8221 -32.8976 1.47696e-15
12.3802 -31.3351 1.33325e-15
0.974804 -8.07981 -8.37128e-16
0.508618 -9.57195 -7.91042e-16
3.0075 -9.32263 -7.21308e-16
2.31977 -7.63201 -8.23151e-16
-2.68193 -14.4333 -5.2442e-16
-4.76872 -8.4153 -7.2873e-16
-0.521128 -11.7873 -6.61377e-16
-1.91419 -13.1084 -6.13008e-16
-2.09159 -11.5166 -7.4164e-16
8.42646 -0.806149 -8.05134e-16
7.1056 -7.39979 -6.94548e-16
10.121 -0.256514 -7.84412e-16
13.6386 -3.95839 -6.41216e-16
13.6796 -6.76764 -5.2321e-16
14.7593 -12.157 -1.87544e-16
13.0866 -10.4952 -3.24116e-16
14.1901 -9.0799 -3.83672e-16
2.05781 -14.1433 -3.76832e-16
0.803739 -14.8384 -3.61384e-16
0.843369 -12.6868 -5.48193e-16
17.5752 -12.6606 -1.16648e-16
19.0571 -11.5312 -1.45713e-16
12.9738 -21.8012 4.9292e-16
12.7459 -19.7614 3.28996e-16
14.3677 -20.5104 3.96116e-16
19.9609 -5.96953 -2.85293e-16
22.6674 -8.10301 -1.52244e-16
21.0914 -10.1534 -1.72181e-16
21.0859 -13.6218 -1.26644e-17
11.9506 -12.4573 -2.2196e-16
23.1475 -18.6063 1.71786e-16
22.4371 -16.0024 9.72634e-17
13.9082 -15.9133 5.21018e-17
14.8655 -14.4848 -3.54464e-17
15.1264 -17.0586 1.44643e-16
12.3723 -14.907 -4.09669e-17
10.8663 -13.9991 -1.34939e-16
17.0247 -18.2871 2.36092e-16
17.5441 -15.159 3.54492e-17
18.4174 -17.9063 2.14446e-16
4.98252 -18.6407 1.0679e-16
5.80026 -19.4921 2.01244e-16
8.73984 -11.1106 -3.98465e-16
7.85005 -9.02067 -5.66454e-16
-9.56762 -12.4469 -7.58567e-16
0.439598 -17.5587 -1.24963e-16
-0.0638953 -16.1614 -2.72796e-16
-0.0146373 -19.7086 6.56551e-17
-1.17718 -14.7634 -4.44157e-16
3.15799 -10.8321 -6.07091e-16
1.96983 -10.4652 -6.77858e-16
3.36429 -22.1731 3.91977e-16
-0.504183 -21.3849 2.15509e-16
16.8026 -41.7257 1.44177e-15
15.9392 -42.9208 1.13044e-15
12.8725 -39.156 1.7672e-15
11.7615 -40.1855 1.50119e-15
9.5851 -31.7046 1.36795e-15
10.2975 -33.405 1.50642e-15
9.02153 -33.893 1.553e-15
1.36873 -28.1413 9.40591e-16
1.46846 -30.3881 1.17245e-15
15.1038 -35.6351 1.70674e-15
1.26045 -25.4122 6.62476e-16
4.40276 -22.4113 4.36546e-16
3.18058 -23.9495 5.5761e-16
11.3527 -18.7553 2.35927e-16
12.6861 -17.294 1.39123e-16
-6.3567 -12.1965 -7.79798e-16
-4.74492 -11.7441 -7.52932e-16
-4.87343 -10.1668 -8.30094e-16
-3.50788 -11.2365 -7.70433e-16
16.1604 -13.3154 -9.50023e-17
20.3178 -16.799 1.23731e-16
19.6231 -19.8878 3.24374e-16
15.9698 -19.529 3.2364e-16
20.9642 -25.9541 6.9006e-16
20.2995 -24.2644 6.21815e-16
16.1494 -21.7022 4.87565e-16
17.2573 -23.7866 6.42399e-16
15.6467 -24.5696 7.14875e-16
11.776 -30.1085 1.21819e-15
10.8174 -29.496 1.16032e-15
11.7206 -28.3684 1.05714e-15
9.70118 -21.1307 4.10125e-16
10.4648 -22.9493 5.72567e-16
8.80707 -22.9582 5.56892e-16
18.7243 -23.1988 5.7487e-16
19.3934 -21.9092 4.62035e-16
13.7393 -24.2256 6.94543e-16
12.1931 -23.4687 6.27423e-16
18.6663 -30.6724 1.14889e-15
16.835 -29.0799 1.09069e-15
14.8031 -26.1299 8.49377e-16
11.2244 -25.222 7.7419e-16
8.00693 -24.42 6.77937e-16
7.26566 -22.7215 5.15494e-16
6.51243 -9.0712 -6.09092e-16
5.68725 -10.1433 -5.6577e-16
9.62027 -15.6219 -3.82813e-17
9.19238 -13.3813 -2.19274e-16
15.3545 -41.5666 1.46537e-15
8.38481 -35.1886 1.67668e-15
8.54177 -36.9324 1.76019e-15
7.21963 -36.5762 1.74541e-15
2.92162 -30.7664 1.22915e-15
2.63315 -25.1243 6.61102e-16
1.69845 -26.802 8.10537e-16
8.0222 -30.2807 1.22503e-15
7.19324 -31.9738 1.38539e-15
8.62262 -26.5455 8.77429e-16
10.1533 -26.2371 8.59301e-16
9.22102 -28.0188 1.01739e-15
11.8337 -26.7841 9.14156e-16
7.12355 -26.2476 8.36031e-16
3.61316 -16.4557 -1.23678e-16
10.3167 -19.7344 3.01695e-16
10.1967 -17.398 1.11822e-16
4.63013 -11.5003 -4.99793e-16
3.49599 -12.5875 -4.56343e-16
8.64835 -16.7084 2.74863e-17
6.03558 -12.0147 -4.15022e-16
7.66723 -12.8342 -3.01807e-16
6.47498 -14.1136 -2.35831e-16
10.7185 -39.0275 1.73691e-15
9.59285 -37.719 1.6929e-15
7.68787 -33.5403 1.53821e-15
2.85649 -40.7095 1.54719e-15
4.11818 -39.6749 1.79584e-15
2.73775 -27.9134 9.39218e-16
3.49087 -29.131 1.07137e-15
4.02307 -30.6678 1.23125e-15
9.29101 -29.7322 1.17845e-15
15.6982 -27.7173 9.84419e-16
13.3039 -30.2588 1.23007e-15
6.42089 -27.3181 9.29312e-16
5.80869 -25.2867 7.2982e-16
6.28828 -20.8612 3.32682e-16
7.56755 -19.7888 2.63012e-16
8.61925 -19.8442 2.8602e-16
8.12003 -18.3863 1.54581e-16
5.55698 -22.3546 4.53726e-16
16.8053 5.77763 -2.10369e-16
14.3079 -30.2082 1.22213e-15
15.8225 -30.2038 1.2054e-15
0.669068 -11.0046 -6.76824e-16
3.40759 -14.8496 -2.69535e-16
3.84427 -27.7718 9.41316e-16
5.60912 -33.0535 1.48348e-15
6.57329 -33.2952 1.50907e-15
6.09695 -34.5856 1.63631e-15
4.75307 -32.0102 1.37263e-15
6.17255 -36.0008 1.74841e-15
0.249413 -34.6538 1.60549e-15
1.18509 -35.9343 1.71462e-15
4.28896 -33.3061 1.49987e-15
2.42526 -35.1151 1.66491e-15
2.08189 -36.6279 1.78668e-15
6.32918 -37.7168 1.83192e-15
3.3857 -34.0601 1.563e-15
5.16684 -14.9817 -2.03189e-16
9.26544 -44.3062 5.1996e-16
8.41522 -39.071 1.76163e-15
4.39609 -44.3857 5.28768e-16
8.29803 -40.8146 1.56258e-15
7.25973 -40.0412 1.62987e-15
6.14386 -41.0711 1.58762e-15
6.25681 -39.3409 1.78667e-15
3.20913 -37.4053 1.79211e-15
4.18748 -38.0693 1.84109e-15
5.21821 -38.769 1.78967e-15
4.86763 -27.704 9.48284e-16
5.34195 -24.1843 6.19359e-16
8.16053 -41.6032 1.39897e-15
8.6015 -41.914 1.30125e-15
8.7403 -41.1252 1.46485e-15
8.87765 -40.3343 1.62846e-15
9.32105 -40.6462 1.53073e-15
7.5814 -42.0801 1.33309e-15
7.71928 -41.2941 1.4967e-15
9.04222 -42.2262 1.20352e-15
8.4605 -42.701 1.13764e-15
-13.1947 -10.7092 -2.16655e-16
-12.7579 -11.5978 -3.05455e-16
-12.3707 -10.9874 -3.44508e-16
-11.9928 -10.3739 -3.83562e-16
-11.5458 -11.2814 -4.72362e-16
-14.0164 -10.4446 -8.88008e-17
-13.6548 -9.82009 -1.27854e-16
-12.3445 -12.4868 -3.94256e-16
-13.1536 -12.2055 -2.66402e-16
-14.4724 -14.1673 -8.88008e-17
-14.1023 -14.7229 -8.88008e-17
-13.774 -13.9885 -1.77602e-16
-13.4587 -13.2503 -2.66402e-16
-13.072 -13.8221 -2.66402e-16
-15.1662 -14.3592 0
-14.8549 -13.6132 -8.88008e-17
-13.7456 -15.2809 -8.88008e-17
-14.4447 -15.4534 0
-13.0002 -16.4189 -1.10213e-16
-12.6802 -16.9821 -1.10213e-16
-12.2266 -16.3072 -2.20425e-16
-11.7878 -15.6253 -3.30638e-16
-11.4507 -16.2131 -3.30638e-16
-13.7706 -16.5497 0
-13.3359 -15.8593 -1.10213e-16
-12.3762 -17.5498 -1.10213e-16
-13.1503 -17.6491 0
-9.04238 -18.9744 -2.10177e-16
-8.81388 -19.6087 -1.67482e-16
-8.34657 -19.0598 -2.14536e-16
-7.88958 -18.5011 -2.61591e-16
-7.65286 -19.1573 -2.18896e-16
-9.74023 -18.902 -2.05817e-16
-9.28759 -18.3462 -2.52871e-16
-8.60193 -20.2489 -1.24787e-16
-9.29188 -20.1472 -1.20427e-16
-15.6409 -12.1982 0
-15.3712 -11.1339 0
-16.0418 -11.6353 0
-16.7178 -12.138 0
-16.444 -11.0685 0
-15.2445 -12.76 0
-15.9301 -13.2558 0
-15.133 -10.0598 0
-14.7045 -10.6367 0
-12.3961 -8.89381 -1.27854e-16
-13.0247 -9.35529 -1.27854e-16
-12.1854 -9.63481 -2.55708e-16
-11.3446 -9.92871 -3.83562e-16
-12.6253 -8.1518 0
-11.7692 -8.43466 -1.27854e-16
-13.8618 -9.08826 0
-12.975 -15.141 -1.99013e-16
-12.2008 -15.0178 -3.09226e-16
-12.6291 -14.4169 -2.87814e-16
-12.2974 -13.687 -3.76615e-16
-11.4236 -14.9103 -4.19439e-16
-9.29598 -10.831 -6.70795e-16
-9.34028 -10.1176 -6.08162e-16
-9.93273 -10.5345 -5.96791e-16
-10.5272 -10.9517 -5.85419e-16
-10.5713 -10.2487 -5.22787e-16
-8.6616 -11.1385 -7.44799e-16
-9.26793 -11.541 -7.33428e-16
-9.40108 -9.40095 -5.45529e-16
-8.74995 -9.70042 -6.19533e-16
-9.80959 -22.4851 1.11121e-17
-9.03838 -22.6414 4.16573e-17
-9.30041 -21.9722 -8.32105e-18
-9.57844 -21.3136 -5.82994e-17
-8.80231 -21.4455 -2.77542e-17
-10.33 -22.9833 3.05452e-17
-10.5869 -22.3423 -1.94331e-17
-8.2728 -22.8101 7.22025e-17
-8.79167 -23.3211 9.16357e-17
-5.87049 -3.63122 -1.31236e-16
-5.13785 -3.84269 -2.62472e-16
-5.28512 -3.13896 -1.31236e-16
-5.44926 -2.43203 0
-4.70564 -2.63953 -1.31236e-16
-6.46116 -4.11705 -1.31236e-16
-6.59927 -3.42928 0
-4.40139 -4.06411 -3.93708e-16
-5.00761 -4.54325 -3.93708e-16
-2.18094 -4.8667 -6.7306e-16
-3.00278 -5.10558 -6.38369e-16
-2.54904 -5.69708 -7.17103e-16
-2.10697 -6.29516 -7.95837e-16
-2.93866 -6.51202 -7.61145e-16
-1.836 -4.02001 -6.29018e-16
-1.35348 -4.62827 -7.07752e-16
-3.81943 -5.34527 -6.03678e-16
-3.46743 -4.52062 -5.59635e-16
-8.2324 -27.9614 3.03908e-16
-8.51138 -27.327 2.41817e-16
-8.97082 -27.7499 1.81908e-16
-9.43459 -28.1629 1.21999e-16
-9.71498 -27.5399 5.99088e-17
-7.4993 -28.175 4.25907e-16
-7.96157 -28.6049 3.65998e-16
-8.79921 -26.7024 1.79726e-16
-8.05664 -26.8943 3.01726e-16
-9.36645 -28.8469 1.21999e-16
-9.30626 -29.5364 1.21999e-16
-8.6314 -29.0785 2.43999e-16
-7.90162 -29.3106 3.65998e-16
-10.1072 -28.615 0
-9.25329 -30.2312 1.21999e-16
-9.98559 -29.9782 0
-6.8417 -38.319 9.84985e-16
-6.57489 -38.9284 1.03004e-15
-6.26759 -38.1295 1.14532e-15
-5.96207 -37.3274 1.2606e-15
-5.69457 -37.9366 1.30566e-15
-7.41683 -38.505 8.24648e-16
-7.1104 -37.7125 9.3993e-16
-6.30974 -39.5407 1.0751e-15
-6.88382 -39.7244 9.14759e-16
-4.01367 -44.8287 2.7106e-16
-3.2569 -44.8436 2.7106e-16
-3.48051 -44.1303 5.42121e-16
-3.70253 -43.4179 8.13181e-16
-2.94876 -43.4279 8.13181e-16
-4.54766 -45.5235 0
-4.77237 -44.8117 2.7106e-16
-2.50261 -44.8581 2.7106e-16
-3.03058 -45.558 0
-7.57734 -24.7405 2.26457e-16
-7.66065 -25.4403 2.55821e-16
-7.0724 -25.2956 3.0137e-16
-6.4867 -25.1468 3.46919e-16
-6.57712 -25.8642 3.76283e-16
-8.09237 -24.1998 1.51544e-16
-7.50643 -24.0388 1.97094e-16
-7.75571 -26.1383 2.85184e-16
-8.25169 -25.5804 2.10272e-16
-6.90767 -42.7189 4.68252e-16
-6.31275 -42.3531 6.9655e-16
-6.61191 -41.8031 7.08205e-16
-6.9122 -41.2555 7.19861e-16
-6.31839 -40.8839 9.48159e-16
-7.20584 -43.631 2.28298e-16
-7.50428 -43.0814 2.39954e-16
-5.71961 -41.9832 9.24849e-16
-6.01457 -42.9058 6.84895e-16
-5.95742 -44.3724 2.28298e-16
-5.985 -43.6389 4.56597e-16
-6.58084 -43.9989 2.28298e-16
-7.17866 -44.3574 0
-5.3365 -44.7558 2.28298e-16
-5.93536 -45.1045 0
-5.39188 -43.2741 6.84895e-16
-4.82761 -43.3238 7.27657e-16
-4.79927 -44.0665 4.99359e-16
-4.26464 -43.3716 7.70419e-16
-3.73167 -42.6719 1.04148e-15
-4.85721 -42.5832 9.55956e-16
1.96181 -44.7919 3.1178e-16
2.70757 -44.788 3.1178e-16
2.4297 -44.0037 6.23561e-16
2.15253 -43.2224 9.35341e-16
2.89914 -43.211 9.35341e-16
1.49507 -45.5752 0
1.21375 -44.7959 3.1178e-16
3.45102 -44.7841 3.1178e-16
2.9867 -45.5752 0
-0.31926 -41.3892 1.45616e-15
0.0272204 -40.7807 1.61162e-15
-0.560796 -40.6427 1.6101e-15
-1.15002 -40.5059 1.60859e-15
-0.803128 -39.8985 1.76404e-15
-0.0781725 -42.138 1.30221e-15
-0.666016 -41.9945 1.3007e-15
0.373359 -40.1691 1.76708e-15
0.614078 -40.9202 1.61313e-15
-2.76135 -38.6613 1.71708e-15
-3.10936 -39.3079 1.66356e-15
-2.41998 -39.2433 1.71439e-15
-1.73218 -39.1773 1.76522e-15
-2.08002 -39.8284 1.7117e-15
-3.10428 -38.0825 1.71977e-15
-2.41445 -38.0107 1.7706e-15
-3.45836 -39.9508 1.61004e-15
-3.80045 -39.3708 1.61273e-15
-10.1783 -23.6143 3.05452e-17
-10.0394 -24.2526 3.05452e-17
-9.41069 -23.795 6.10905e-17
-8.64967 -23.9863 9.16357e-17
-10.9531 -23.4453 0
-9.91264 -24.8979 3.05452e-17
-10.6777 -24.6928 0
5.10302 8.79604 -1.31173e-16
4.63872 8.05911 -1.31173e-16
5.83775 7.76075 -2.62346e-16
7.03247 7.45894 -3.93519e-16
6.52072 6.6958 -3.93519e-16
4.3043 9.80738 0
5.56748 9.55102 -1.31173e-16
4.17429 7.33947 -1.31173e-16
3.44487 8.37164 0
14.4807 9.17044 -1.10165e-16
13.2803 10.1345 -1.10165e-16
13.3054 8.87158 -2.2033e-16
13.3176 7.59259 -3.30496e-16
12.1728 8.55971 -3.30496e-16
15.6993 9.4598 0
15.6927 8.16428 -1.10165e-16
12.074 11.059 -1.10165e-16
13.2399 11.3753 0
8.97203 11.7049 -1.40404e-16
9.76985 12.2659 -7.02018e-17
8.41722 12.6459 -7.02018e-17
7.04817 12.8919 -7.02018e-17
7.79099 13.5377 0
9.47457 10.7314 -2.10606e-16
8.19477 11.1299 -2.10606e-16
10.5995 12.7986 0
11.1207 11.7901 -7.02018e-17
7.90777 14.2016 0
7.85302 13.8687 0
9.29107 13.5658 0
10.7158 13.1234 0
6.46977 14.5458 0
7.95262 14.536 0
6.39495 13.9335 0
7.4993 9.33366 -2.71577e-16
6.53693 9.44414 -2.01375e-16
7.2728 8.38959 -3.32548e-16
7.96056 7.29154 -4.6372e-16
7.70959 10.2897 -2.10606e-16
8.45829 9.20514 -3.41778e-16
5.73653 10.4484 -7.02018e-17
17.4856 -0.977465 -4.62625e-16
18.806 -1.23645 -3.83413e-16
17.7007 0.326587 -4.22259e-16
16.5405 1.74077 -4.61104e-16
17.8545 1.6665 -3.81893e-16
17.2083 -2.23539 -5.0299e-16
16.2182 -0.790021 -5.41836e-16
20.188 -1.59814 -3.04202e-16
19.8081 -2.95316 -3.44568e-16
25.1569 -3.04667 -6.63391e-17
24.0097 -0.768065 -6.63391e-17
23.3887 -2.47074 -1.32678e-16
22.6988 -3.99827 -1.99017e-16
21.7368 -1.98718 -1.99017e-16
27.0249 -3.65171 0
25.9582 -5.21856 -6.63391e-17
22.6351 1.34736 -6.63391e-17
24.5939 1.09745 0
25.1157 -24.4662 2.39868e-16
25.3056 -25.4238 2.53753e-16
25.8893 -24.9926 1.6454e-16
26.4827 -24.5535 7.53276e-17
26.6561 -25.5063 8.92125e-17
24.337 -23.9265 3.15195e-16
24.9211 -23.4772 2.25983e-16
25.4921 -26.3535 2.67637e-16
24.7315 -25.848 3.42965e-16
3.05075 6.11581 -1.29065e-16
2.58667 5.44404 -1.29065e-16
3.4941 5.2495 -2.5813e-16
4.41444 5.05585 -3.87195e-16
3.90935 4.38077 -3.87195e-16
2.57851 6.982 0
3.51109 6.8023 -1.29065e-16
2.1177 4.78642 -1.29065e-16
1.69466 5.64042 0
19.3144 1.65998 -2.76708e-16
20.5807 -0.0527764 -2.37863e-16
20.8912 1.57221 -1.71524e-16
21.0862 3.25815 -1.05185e-16
18.0089 3.14718 -3.15554e-16
24.061 -27.4899 4.76451e-16
23.4167 -27.4121 5.48606e-16
23.8569 -28.2742 5.23898e-16
24.2921 -29.1165 4.99189e-16
23.6568 -29.0445 5.71344e-16
24.2695 -26.6902 4.29005e-16
24.708 -27.5657 4.04296e-16
22.7755 -27.3327 6.20761e-16
22.9707 -26.529 5.73315e-16
18.7797 -39.073 1.77073e-15
19.0733 -39.7272 1.70385e-15
19.3576 -39.2332 1.72518e-15
19.6409 -38.7374 1.74651e-15
19.9372 -39.3963 1.67964e-15
18.2036 -38.9152 1.81628e-15
18.4839 -38.4132 1.83761e-15
19.3645 -40.3761 1.63698e-15
18.788 -40.2202 1.68252e-15
20.1511 -36.2289 1.57644e-15
20.7017 -36.3263 1.48729e-15
20.263 -35.5759 1.49535e-15
19.8228 -34.8176 1.5034e-15
20.3743 -34.9169 1.41425e-15
20.0382 -36.8764 1.65753e-15
19.6019 -36.1324 1.66559e-15
21.2533 -36.4241 1.39814e-15
21.1385 -37.0698 1.47924e-15
22.7366 -44.3956 2.11611e-16
23.3527 -44.2394 2.11611e-16
22.9487 -43.2693 4.23222e-16
22.5078 -42.3286 6.34834e-16
23.1267 -42.1303 6.34834e-16
22.4275 -45.5102 0
22.1195 -44.5207 2.11611e-16
23.9716 -44.0592 2.11611e-16
23.6896 -45.2397 0
21.0386 -31.992 1.05722e-15
20.9101 -33.0583 1.16627e-15
21.7679 -33.0147 1.01928e-15
22.6307 -32.97 8.72296e-16
22.4928 -34.0183 9.81347e-16
20.3051 -30.9489 1.09516e-15
21.1674 -30.9057 9.48169e-16
20.7813 -34.1067 1.27532e-15
20.0574 -33.1023 1.31326e-15
19.898 -44.9528 2.26425e-16
20.6507 -44.9278 2.26425e-16
20.1772 -44.3754 4.52851e-16
19.6954 -43.8171 6.79276e-16
20.4761 -43.8152 6.79276e-16
19.6458 -45.5407 0
19.1444 -44.9825 2.26425e-16
21.4088 -44.9199 2.26425e-16
21.1269 -45.4717 0
24.5034 -36.2792 5.84278e-16
25.0899 -35.8678 3.96434e-16
24.3187 -35.3804 6.05024e-16
23.5452 -34.886 8.13614e-16
24.1322 -34.4726 6.2577e-16
24.6861 -37.1711 5.63532e-16
23.9199 -36.6858 7.72122e-16
25.6799 -35.4516 2.0859e-16
25.8582 -36.3481 1.87844e-16
25.7326 -38.002 1.87844e-16
25.7953 -37.177 1.87844e-16
25.2104 -37.588 3.75688e-16
24.6279 -37.9932 5.63532e-16
26.2526 -38.4123 0
25.6693 -38.8246 1.87844e-16
26.3833 -36.7607 0
24.303 -43.4433 2.11611e-16
24.6246 -42.8211 2.11611e-16
23.8796 -42.4746 4.23222e-16
23.4316 -41.5237 6.34834e-16
24.6913 -44.4299 0
24.9396 -42.1931 2.11611e-16
25.3642 -43.1639 0
25.1888 -40.5655 2.11611e-16
24.3098 -41.0544 4.23222e-16
25.0689 -41.3792 2.11611e-16
25.824 -41.6985 0
25.3035 -39.7512 2.11611e-16
26.0698 -40.0571 0
23.5459 -40.7286 6.34834e-16
26.1392 -30.1114 1.36659e-16
25.4353 -30.3367 2.73318e-16
26.0765 -31.0079 1.36659e-16
26.7133 -31.6647 0
26.0173 -31.8899 1.36659e-16
26.2056 -29.1982 1.36659e-16
26.8484 -29.8828 0
24.7369 -30.5588 4.09977e-16
24.7895 -29.6507 4.09977e-16
19.0838 -35.7654 1.6514e-15
19.1932 -35.107 1.5703e-15
18.5664 -35.3974 1.63721e-15
17.9422 -35.6895 1.70411e-15
18.0498 -35.0284 1.62302e-15
18.9732 -36.4181 1.73249e-15
19.3017 -34.4424 1.48921e-15
-5.57454 -20.9775 5.81386e-18
-5.14617 -21.4182 6.3267e-17
-4.93042 -20.5625 -1.55549e-17
-4.73527 -19.6981 -9.43769e-17
-4.2899 -20.1405 -3.69237e-17
-6.22282 -21.385 2.71826e-17
-6.0108 -20.547 -5.16393e-17
-4.72567 -21.8685 1.2072e-16
-5.38192 -22.2648 1.42089e-16
-7.43972 -5.22352 -1.52466e-16
-8.0476 -5.69145 -1.52466e-16
-7.1286 -6.04647 -3.04932e-16
-6.2079 -6.41894 -4.57398e-16
-6.83925 -6.86985 -4.57398e-16
-7.77211 -4.4012 0
-6.8359 -4.75113 -1.52466e-16
-8.65919 -6.15563 -1.52466e-16
-8.96432 -5.35307 0
-10.766 -9.49664 -3.94933e-16
-10.1898 -9.06511 -4.06304e-16
-10.9794 -8.74331 -2.67079e-16
-11.2114 -7.98918 -1.39225e-16
-9.61609 -8.63342 -4.17675e-16
3.51758 2.45466 -4.55116e-16
3.72712 3.40819 -4.21155e-16
2.83913 3.62308 -2.9209e-16
1.9634 3.83422 -1.63025e-16
4.15231 1.27853 -6.18141e-16
3.28041 1.52122 -4.89076e-16
4.62615 3.18814 -5.5022e-16
27.0143 -18.7706 2.74785e-17
27.119 -17.403 2.74785e-17
26.3064 -18.1592 5.49571e-17
25.5313 -18.8863 8.24356e-17
25.5889 -17.5269 8.24356e-17
27.7099 -19.3608 0
26.9227 -20.0541 2.74785e-17
27.2453 -15.9251 2.74785e-17
27.9767 -16.6171 0
-9.17918 -34.665 1.99705e-16
-9.13841 -35.4334 1.99705e-16
-8.61875 -35.0883 3.9941e-16
-8.10003 -34.7376 5.99115e-16
-8.06127 -35.5127 5.99115e-16
-9.74283 -34.2427 0
-9.2241 -33.9005 1.99705e-16
-9.10118 -36.2054 1.99705e-16
-9.65882 -35.7731 0
-7.94059 -30.1313 4.10006e-16
-8.61823 -30.5915 2.88006e-16
-7.98819 -30.9547 4.54013e-16
-7.36276 -31.3209 6.2002e-16
-8.04361 -31.7804 4.98021e-16
-7.26733 -29.6571 5.32005e-16
-9.29974 -31.0373 1.66007e-16
14.1332 1.58749 -6.17243e-16
15.1854 0.439836 -5.79539e-16
15.3112 1.67167 -5.39174e-16
15.3943 2.92653 -4.98808e-16
12.9978 1.49098 -6.95312e-16
13.0815 2.66731 -6.54947e-16
15.0098 -0.762014 -6.19905e-16
26.6172 -22.3723 7.53276e-17
25.7579 -22.9322 1.50655e-16
26.5471 -23.4832 7.53276e-17
27.3275 -24.0176 0
26.6948 -21.2131 7.53276e-17
27.5006 -21.7969 0
24.9616 -22.3649 2.25983e-16
21.8378 -42.8257 6.49648e-16
21.1603 -43.3157 6.64462e-16
21.6482 -43.9072 4.38037e-16
22.0046 -41.7111 8.61259e-16
20.6646 -42.7311 8.90888e-16
22.7902 -39.2999 9.58588e-16
23.1457 -38.3927 9.34821e-16
22.5439 -38.2891 1.0945e-15
21.9423 -38.1851 1.25418e-15
22.293 -37.2705 1.23041e-15
23.0306 -40.3058 8.22678e-16
22.4323 -40.1956 9.82356e-16
23.5002 -37.4748 9.11054e-16
23.7473 -38.4954 7.75143e-16
5.98625 -43.426 8.86472e-16
6.38266 -44.0199 6.22088e-16
6.50267 -43.0726 9.79792e-16
6.62152 -42.1259 1.3375e-15
7.02207 -42.721 1.07311e-15
5.47316 -43.7806 7.93151e-16
5.58652 -42.8341 1.15086e-15
6.77407 -44.6165 3.57704e-16
6.26748 -44.9721 2.64384e-16
-0.878319 -27.7974 8.60678e-16
-1.50061 -27.7818 8.45959e-16
-1.46917 -28.5333 9.24164e-16
-1.44551 -29.2845 1.00237e-15
-2.06616 -29.2569 9.8765e-16
-0.293433 -27.0495 7.97191e-16
-0.256839 -27.816 8.75396e-16
-2.12379 -27.7685 8.3124e-16
-1.54074 -27.0302 7.67754e-16
-5.40467 -17.5126 -3.32839e-16
-5.90589 -18.1328 -2.80619e-16
-5.12696 -18.2911 -2.43068e-16
-4.35035 -18.4628 -2.05517e-16
-4.87148 -19.0768 -1.53297e-16
-5.70503 -16.7421 -4.2261e-16
-4.91261 -16.8826 -3.85059e-16
-6.41667 -18.7428 -2.28399e-16
-6.68709 -17.9886 -3.18171e-16
-11.6168 -19.3531 -6.21279e-17
-11.155 -18.8025 -1.24256e-16
-11.8725 -18.7728 -6.21279e-17
-12.5908 -18.7619 0
-12.1445 -18.198 -6.21279e-17
-11.3771 -19.9396 -6.21279e-17
-12.0928 -19.8922 0
-10.7066 -18.2415 -1.86384e-16
-10.4389 -18.8495 -1.86384e-16
-14.2693 -11.5102 -8.88008e-17
-14.5507 -12.5658 -8.88008e-17
-13.8536 -12.3808 -1.77602e-16
-11.2915 -14.2923 -4.86652e-16
-11.1713 -13.6696 -5.53864e-16
-11.735 -13.6743 -4.6524e-16
-12.1927 -13.0633 -4.43828e-16
-10.8634 -14.9179 -5.08064e-16
-11.0629 -13.0423 -6.21077e-16
-10.6065 -13.673 -6.42489e-16
-10.9594 -21.1219 -1.94331e-17
-10.7659 -21.7284 -1.94331e-17
-10.2669 -21.2112 -3.88663e-17
-9.7805 -20.6801 -5.82994e-17
-11.656 -21.0469 0
-11.168 -20.5224 -1.94331e-17
-11.2776 -22.2301 0
-6.73644 -23.857 2.16434e-16
-6.22182 -24.413 2.91347e-16
-5.97026 -23.6709 2.35774e-16
-5.73301 -22.9207 1.80202e-16
-5.20712 -23.4815 2.55115e-16
-7.26146 -23.3157 1.41521e-16
-5.71736 -24.9827 3.6626e-16
-1.02487 -31.5464 1.25709e-15
-0.562894 -31.3293 1.24014e-15
-1.2085 -30.9533 1.18769e-15
-1.85737 -30.585 1.13525e-15
-1.39612 -30.3627 1.1183e-15
-0.84507 -32.1418 1.32648e-15
-1.48755 -31.7616 1.27404e-15
-0.101585 -31.1105 1.22318e-15
0.0798185 -31.7129 1.29258e-15
-5.07298 -39.3714 1.37479e-15
-5.38267 -38.6519 1.34023e-15
-5.69065 -39.4572 1.22495e-15
-6.0001 -40.2592 1.10966e-15
-4.45675 -39.2833 1.52464e-15
-4.76529 -40.0948 1.40936e-15
-5.07633 -37.8432 1.45551e-15
-8.17429 -41.2776 2.39954e-16
-7.83784 -42.1776 2.39954e-16
-7.5427 -41.2672 4.79907e-16
-7.24984 -40.3542 7.19861e-16
-8.80674 -41.2872 0
-8.51375 -40.3811 2.39954e-16
-8.13577 -43.0854 0
-4.53855 -41.9521 1.11746e-15
-3.9757 -41.9937 1.16022e-15
-4.22068 -41.3183 1.27896e-15
-4.46683 -40.6457 1.39771e-15
-3.90354 -40.6816 1.44047e-15
-5.10268 -41.9096 1.0747e-15
-3.414 -42.0345 1.20298e-15
9.9548 3.27061 -7.00822e-16
8.90951 4.22474 -6.48741e-16
9.01493 2.9756 -7.2071e-16
9.08403 1.74148 -7.92679e-16
8.08841 2.68585 -7.40598e-16
10.9104 3.56904 -6.80935e-16
10.9986 2.26258 -7.52903e-16
7.85776 5.12696 -5.9666e-16
8.77188 5.48363 -5.76773e-16
6.1869 11.2373 -7.02018e-17
7.19748 11.1952 -1.40404e-16
6.62722 12.0507 -7.02018e-17
5.97217 12.8265 0
5.15576 11.2866 0
27.0864 -12.4618 -9.78301e-18
26.9632 -10.1922 -9.78301e-18
25.7595 -11.7984 -1.9566e-17
24.5617 -13.0847 -2.9349e-17
24.4339 -11.2211 -2.9349e-17
28.367 -13.2081 0
26.9823 -14.3803 -9.78301e-18
26.5117 -7.72006 -9.78301e-18
28.221 -8.1343 0
25.143 -21.2601 1.78134e-16
26.0176 -20.6664 1.02806e-16
25.3322 -20.1041 1.30285e-16
24.6404 -19.5271 1.57763e-16
24.296 -21.837 2.53461e-16
19.1086 -42.604 1.13347e-15
18.8804 -42.0081 1.31096e-15
18.4516 -42.5537 1.18376e-15
18.0283 -43.1068 1.05656e-15
17.7984 -42.5084 1.23404e-15
19.77 -42.6619 1.08319e-15
19.3317 -43.1957 9.55986e-16
18.6483 -41.4076 1.48845e-15
19.3116 -41.4686 1.43816e-15
22.0722 -30.9138 8.38302e-16
22.8056 -31.9541 8.00365e-16
22.9833 -30.9205 7.28434e-16
23.1646 -29.867 6.56503e-16
23.9004 -30.9244 6.18567e-16
21.3329 -29.849 8.76238e-16
23.5335 -32.9716 7.62429e-16
25.7694 -33.7607 2.0859e-16
24.9478 -34.1197 4.1718e-16
25.724 -34.6099 2.0859e-16
26.4971 -35.0905 0
25.8169 -32.9027 2.0859e-16
26.5976 -33.3953 0
24.1689 -33.6205 6.2577e-16
19.0883 -26.8517 8.31279e-16
18.359 -27.1054 8.65043e-16
19.2956 -27.9499 8.94142e-16
20.2319 -28.786 9.23241e-16
19.4979 -29.022 9.57006e-16
18.875 -25.7249 7.68415e-16
19.8261 -26.6004 7.97514e-16
17.6375 -27.3623 8.98807e-16
17.4223 -26.257 8.35944e-16
-0.190992 -28.9156 9.91325e-16
-0.790962 -29.6449 1.05481e-15
-0.13985 -30.0139 1.10725e-15
0.508023 -30.3916 1.1597e-15
0.403814 -28.175 9.27839e-16
16.29 -7.6697 -4.0117e-16
16.5111 -8.94677 -3.31401e-16
17.1536 -8.23651 -3.45933e-16
17.7881 -7.4883 -3.60466e-16
18.0099 -8.85921 -2.90697e-16
15.4212 -7.15742 -4.56406e-16
15.9918 -6.38287 -4.70938e-16
16.6596 -10.2032 -2.61632e-16
15.8627 -9.6241 -3.16868e-16
-9.79958 -26.871 5.99088e-17
-9.34423 -26.453 1.19818e-16
-9.89372 -26.2089 5.99088e-17
-10.448 -25.9703 0
-9.99779 -25.5537 5.99088e-17
-10.2598 -27.278 0
-8.89424 -26.0241 1.79726e-16
-4.40744 -35.3773 1.4559e-15
-4.85392 -35.0393 1.37254e-15
-4.88176 -35.8513 1.41646e-15
-4.91261 -36.6638 1.46038e-15
-5.3576 -36.3202 1.37702e-15
-3.93477 -34.8981 1.49535e-15
-3.96275 -35.718 1.53927e-15
-5.30225 -34.7039 1.28917e-15
-4.82964 -34.2278 1.32861e-15
-9.01326 -37.8418 1.94898e-16
-8.89509 -38.8046 1.94898e-16
-8.53071 -38.1836 3.89797e-16
-8.16764 -37.56 5.84695e-16
-8.0496 -38.5261 5.84695e-16
-9.49735 -37.5006 0
-9.13559 -36.8832 1.94898e-16
-8.78047 -39.7716 1.94898e-16
-9.26069 -39.4231 0
-5.08255 -40.7272 1.24786e-15
-5.69974 -40.8066 1.09801e-15
-5.40062 -41.3567 1.08635e-15
-7.07157 -37.0228 9.44737e-16
-6.49701 -36.829 1.10507e-15
-7.03469 -36.334 9.49544e-16
-7.57528 -35.842 7.94014e-16
-6.99995 -35.6461 9.5435e-16
-7.64714 -37.2126 7.844e-16
-5.92359 -36.6314 1.26541e-15
-4.25271 -36.7364 1.54847e-15
-3.59473 -36.8086 1.63656e-15
-3.77789 -36.2622 1.58791e-15
-3.3045 -35.7832 1.62736e-15
-4.72888 -37.2059 1.50903e-15
-2.93862 -36.8807 1.72464e-15
-3.41306 -37.357 1.6852e-15
-2.96838 -41.3039 1.37256e-15
-2.52372 -40.5687 1.54213e-15
-3.21278 -40.626 1.4913e-15
-2.72485 -41.9844 1.25381e-15
-1.83623 -40.5099 1.59296e-15
-2.03751 -44.1553 5.57749e-16
-1.57277 -43.448 8.44437e-16
-2.25994 -43.4381 8.28809e-16
-2.48162 -42.7225 1.09987e-15
-1.81391 -44.8741 2.86688e-16
-1.10851 -42.7359 1.13113e-15
-0.887418 -43.4577 8.60065e-16
11.2168 10.5634 -1.80367e-16
10.3879 10.0511 -2.50569e-16
11.2846 9.32448 -2.90532e-16
11.329 8.07822 -4.00697e-16
9.58211 9.52729 -3.20771e-16
9.32721 8.53982 -3.81742e-16
9.0614 7.56445 -4.42713e-16
10.1813 7.82967 -4.21705e-16
11.0279 7.07948 -4.61668e-16
8.78518 6.60418 -5.03684e-16
23.9085 -39.8267 6.11066e-16
24.7876 -39.3333 3.99455e-16
24.2687 -38.9146 5.87299e-16
23.1253 -35.6893 9.52546e-16
22.7083 -36.4841 1.09148e-15
23.3139 -36.5858 9.318e-16
22.9347 -34.7835 9.73292e-16
22.1033 -36.3811 1.25116e-15
22.0775 -34.8291 1.12028e-15
21.2239 -34.873 1.26727e-15
21.6646 -35.6309 1.25921e-15
24.3538 -32.6161 5.53839e-16
25.1816 -32.2557 3.45249e-16
24.5428 -31.5963 4.81908e-16
11.3153 -3.74004 -7.07615e-16
10.4159 -3.91299 -7.17977e-16
11.4077 -5.05929 -6.48612e-16
12.3454 -6.26858 -5.79248e-16
11.4249 -6.35567 -5.89609e-16
11.1461 -2.40274 -7.66619e-16
12.2303 -3.57111 -6.97254e-16
9.5303 -4.08882 -7.28338e-16
9.38261 -2.82686 -7.87341e-16
26.0971 -15.2929 1.76955e-17
24.9426 -14.6677 7.91252e-18
25.2726 -16.1502 4.51741e-17
24.4962 -16.9615 7.26526e-17
23.7858 -14.0753 -1.87049e-18
26.575 -26.509 8.92125e-17
25.9979 -26.9243 1.78425e-16
26.4992 -27.4832 8.92125e-17
26.9964 -28.0305 0
26.4286 -28.4331 8.92125e-17
27.1606 -26.0877 0
25.4289 -27.334 2.67637e-16
22.7027 -21.9961 3.36315e-16
22.0619 -21.0216 3.19402e-16
21.9146 -22.0246 3.88232e-16
21.7682 -22.9927 4.57062e-16
21.1379 -22.0564 4.4015e-16
23.5023 -21.9694 2.84397e-16
23.3337 -22.9425 3.53228e-16
21.4115 -20.021 3.02489e-16
22.2101 -19.9784 2.50572e-16
-0.564277 -36.1499 1.73142e-15
-0.573222 -36.7896 1.79014e-15
-0.0982721 -36.7861 1.78598e-15
0.376054 -36.7831 1.78183e-15
0.365385 -37.4275 1.84055e-15
-1.03303 -35.5191 1.67686e-15
-0.556983 -35.5095 1.6727e-15
-0.583699 -37.4286 1.84886e-15
-1.04881 -36.7933 1.7943e-15
4.47887 -42.2959 1.27665e-15
4.49595 -41.5953 1.44837e-15
3.86626 -42.1067 1.32405e-15
3.23779 -42.616 1.19972e-15
3.25262 -41.9195 1.37145e-15
5.09053 -42.4871 1.22926e-15
4.46207 -42.9964 1.10493e-15
4.51282 -40.8941 1.62009e-15
5.12705 -41.0825 1.5727e-15
21.8059 -29.025 7.91079e-16
22.7276 -29.0357 6.81212e-16
22.2864 -28.1868 7.0592e-16
21.8405 -27.3193 7.30628e-16
20.8924 -29.014 9.00946e-16
22.1053 -23.8845 4.91185e-16
22.4368 -24.7527 5.25307e-16
22.88 -23.8612 4.39267e-16
23.6641 -23.8379 3.8735e-16
21.3401 -23.9093 5.43102e-16
22.7628 -25.5989 5.5943e-16
22.0028 -25.6208 6.11347e-16
-3.75974 -38.003 1.63168e-15
-4.41708 -37.9233 1.54359e-15
-4.10769 -38.645 1.57816e-15
-0.244369 -39.3198 1.78251e-15
0.34388 -39.4528 1.78403e-15
0.313555 -38.7363 1.80097e-15
0.282171 -38.0196 1.81792e-15
0.87069 -38.148 1.81944e-15
-0.833801 -39.1884 1.78099e-15
0.931028 -39.5874 1.78554e-15
24.9977 -28.8919 3.6253e-16
25.7099 -28.6642 2.25871e-16
25.2107 -28.1202 3.15084e-16
23.8703 -24.817 4.01235e-16
23.4153 -25.6835 4.87275e-16
24.0717 -25.7668 4.1512e-16
-9.96786 -7.07343 -1.39225e-16
-10.5884 -7.53153 -1.39225e-16
-9.78219 -7.85428 -2.7845e-16
-8.97626 -8.19081 -4.17675e-16
-10.1727 -6.29112 0
-9.35013 -6.61403 -1.39225e-16
-11.3943 -7.22182 0
-11.7792 -12.4677 -4.82881e-16
-11.2125 -12.4559 -5.71506e-16
-11.3735 -11.8689 -5.21934e-16
-10.9764 -11.2664 -5.60987e-16
-10.6444 -12.4514 -6.6013e-16
-1.02873 -2.01923 -4.66668e-16
-0.694161 -1.24525 -4.35555e-16
-1.46437 -1.01299 -3.00741e-16
-2.22773 -0.790479 -1.65927e-16
-1.93311 -0.00600784 -1.34814e-16
-0.627396 -3.02464 -6.32596e-16
-1.38411 -2.77744 -4.97782e-16
-0.381753 -0.454855 -4.04441e-16
0.0829363 -1.48759 -5.70368e-16
-6.14115 -22.475 1.22749e-16
-6.55678 -22.0388 6.52955e-17
-6.90321 -22.6825 1.03408e-16
-7.66892 -22.8864 8.4068e-17
-6.98004 -21.6129 7.84233e-18
-0.872874 1.11641 -1.34814e-16
-1.39879 0.549648 -1.34814e-16
-0.616309 0.328747 -2.69627e-16
0.174643 0.0984569 -4.04441e-16
-1.15092 1.90835 0
-0.355856 1.69504 -1.34814e-16
-2.17287 0.76134 0
10.4337 -9.55507 -4.51005e-16
10.8907 -8.53329 -5.02083e-16
9.94646 -8.43772 -5.34999e-16
9.01283 -8.36352 -5.67915e-16
9.40225 -7.34111 -6.18994e-16
10.8634 -10.6897 -3.6701e-16
9.94875 -10.5413 -3.99927e-16
11.3135 -7.47369 -5.53161e-16
11.8451 -8.65371 -4.69167e-16
7.00472 -4.72188 -7.85869e-16
7.78819 -5.47789 -7.37114e-16
7.78846 -4.4287 -7.73562e-16
7.7415 -3.3643 -8.1001e-16
8.57936 -4.12994 -7.61254e-16
6.22798 -5.00992 -7.98177e-16
6.20358 -3.9943 -8.34625e-16
8.55059 -6.26405 -6.88358e-16
7.74224 -6.51044 -7.00666e-16
1.64777 -3.9255 -8.03524e-16
0.79199 -4.13725 -7.57431e-16
1.76071 -4.75445 -8.05061e-16
2.7239 -5.39717 -8.52691e-16
1.84671 -5.57779 -8.06598e-16
1.50746 -3.0911 -8.01986e-16
2.51238 -3.71337 -8.49616e-16
-0.0557091 -4.34893 -7.11339e-16
-0.179637 -3.54393 -7.09802e-16
16.9634 -44.9455 2.7671e-16
17.7355 -44.9488 2.7671e-16
17.3541 -44.3195 5.5342e-16
16.976 -43.6881 8.3013e-16
17.7554 -43.6991 8.3013e-16
16.582 -45.5752 0
16.1919 -44.9429 2.7671e-16
18.5078 -44.953 2.7671e-16
18.124 -45.5752 0
18.7705 -44.36 5.03136e-16
19.0461 -43.7738 7.29561e-16
18.3997 -43.735 7.79846e-16
13.9393 -44.8754 2.88511e-16
14.7085 -44.877 2.88511e-16
14.3807 -44.1771 5.77022e-16
14.0565 -43.4754 8.65533e-16
14.8278 -43.481 8.65533e-16
13.5034 -45.5752 0
13.171 -44.8742 2.88511e-16
15.4787 -44.879 2.88511e-16
15.0413 -45.5752 0
11.6573 -44.722 3.05725e-16
11.3559 -43.8669 6.11449e-16
10.8897 -44.7226 3.05725e-16
10.4272 -45.5752 0
10.121 -44.7245 3.05725e-16
12.4247 -44.7222 3.05725e-16
11.9673 -45.5752 0
11.061 -43.0083 9.17174e-16
11.8238 -43.01 9.17174e-16
-9.78105 -15.2862 -5.42578e-16
-9.0645 -15.422 -5.66651e-16
-9.2683 -14.9256 -6.20232e-16
-9.48212 -14.4318 -6.73813e-16
-8.75755 -14.5642 -6.97886e-16
-10.2959 -15.6466 -4.64924e-16
-10.4985 -15.1656 -5.18505e-16
-8.34937 -15.573 -5.90725e-16
-8.87083 -15.9211 -5.1307e-16
-1.38946 -7.87869 -8.37987e-16
-0.93984 -8.64639 -8.25519e-16
-0.729693 -7.91098 -8.48562e-16
-0.537796 -7.1657 -8.71605e-16
-0.0659458 -7.94928 -8.59138e-16
-2.04545 -7.85224 -8.27411e-16
-1.86042 -7.11954 -8.50454e-16
-0.512532 -9.42251 -8.13052e-16
-1.16698 -9.37218 -8.02476e-16
-10.2035 -19.4537 -1.43689e-16
-10.6792 -19.9943 -8.15611e-17
-9.98411 -20.0639 -1.00994e-16
-7.98967 -20.2809 -1.12922e-16
-7.37908 -20.3198 -1.01056e-16
-7.5095 -19.7371 -1.59976e-16
-7.03895 -19.1834 -2.07031e-16
-8.47963 -20.8142 -6.58671e-17
-6.77001 -20.3654 -8.91906e-17
-7.26149 -20.9052 -4.2136e-17
-11.6553 -17.547 -1.72341e-16
-10.9342 -17.5619 -2.34469e-16
-11.1824 -16.8859 -2.82553e-16
-10.7244 -16.2157 -3.92766e-16
-10.2134 -17.5934 -2.96596e-16
-9.30909 -16.4854 -4.40912e-16
-10.016 -16.3424 -4.16839e-16
-9.75645 -17.043 -3.68754e-16
-9.51779 -17.7482 -3.2067e-16
-8.60413 -16.6444 -4.64986e-16
-4.43866 -24.6362 4.07008e-16
-4.81794 -24.0539 3.31061e-16
-5.07701 -24.811 3.86634e-16
-5.34857 -25.56 4.42206e-16
-3.80195 -24.4588 4.27382e-16
-4.0689 -25.2278 4.82954e-16
-4.57234 -23.2888 2.75489e-16
-6.16034 -27.8442 5.3627e-16
-5.41742 -27.6166 6.01084e-16
-5.84759 -27.0588 5.19729e-16
-6.28508 -26.5106 4.38374e-16
-5.54606 -26.2649 5.03188e-16
-6.48323 -28.6212 5.52812e-16
-6.9069 -28.0638 4.71456e-16
-4.67783 -27.3819 6.65899e-16
-4.99428 -28.1834 6.8244e-16
-8.71921 -24.6671 1.20999e-16
-9.35444 -25.1186 9.0454e-17
-8.80091 -25.3463 1.50363e-16
-7.1809 -27.4132 4.09366e-16
-6.87314 -26.643 3.92824e-16
-7.4636 -26.7711 3.47275e-16
10.9692 4.72635 -6.07846e-16
11.0075 5.89812 -5.34757e-16
9.87806 5.69525 -5.55765e-16
12.0664 3.69757 -6.59927e-16
12.168 6.08829 -5.1375e-16
7.1228 4.57592 -5.94552e-16
6.39222 4.04578 -5.92444e-16
7.24373 3.37979 -6.66521e-16
7.3284 2.19506 -7.3849e-16
6.96771 5.77844 -5.22584e-16
5.6663 3.53631 -5.90337e-16
5.53186 4.68756 -5.18368e-16
-9.22616 -32.4506 1.66007e-16
-8.63391 -32.1201 3.32014e-16
-9.26027 -31.7417 1.66007e-16
-9.8913 -31.3644 0
-9.19677 -33.1639 1.66007e-16
-9.81993 -32.7719 0
-8.01179 -32.5 4.98021e-16
-8.06661 -33.9895 5.65417e-16
-8.03705 -33.2436 5.31719e-16
-8.62992 -33.5759 3.65712e-16
-7.50665 -34.4051 7.65122e-16
-7.44584 -32.9034 6.97726e-16
-5.13209 -28.9294 7.44586e-16
-5.87715 -29.1419 6.79772e-16
-5.27783 -29.6725 8.06733e-16
-4.6849 -30.2127 9.33694e-16
-5.4307 -30.413 8.6888e-16
-4.39007 -28.7102 8.09401e-16
-6.62548 -29.3469 6.14958e-16
-3.28721 -29.7263 9.68701e-16
-3.83588 -29.2138 8.89051e-16
-3.98487 -29.9723 9.51197e-16
-4.14069 -30.7276 1.01334e-15
-2.59167 -29.4754 9.86205e-16
-2.74381 -30.2476 1.04835e-15
-3.69453 -28.4519 8.26904e-16
20.7724 -37.5079 1.55696e-15
20.2229 -37.4118 1.6461e-15
20.4065 -37.9437 1.63467e-15
20.5889 -38.4725 1.62325e-15
20.0405 -38.3777 1.71239e-15
21.3229 -37.6049 1.46781e-15
19.6745 -37.317 1.73525e-15
13.5707 -41.952 1.32148e-15
13.3833 -41.2811 1.4717e-15
12.8253 -41.7921 1.33869e-15
12.27 -42.3053 1.20569e-15
12.0828 -41.6331 1.35591e-15
14.3188 -42.1127 1.30427e-15
13.7587 -42.6204 1.17126e-15
13.1959 -40.6076 1.62192e-15
13.9445 -40.773 1.60471e-15
-1.35072 -41.9916 1.28507e-15
-1.59315 -41.2495 1.43901e-15
-2.03701 -41.9883 1.26944e-15
4.76061 -36.1137 1.75438e-15
4.72294 -35.4146 1.69833e-15
4.26889 -35.7807 1.7299e-15
3.81471 -36.1454 1.76146e-15
3.77632 -35.4515 1.70541e-15
5.25158 -36.4503 1.77887e-15
4.79643 -36.8109 1.81044e-15
4.68319 -34.7136 1.64228e-15
5.17692 -35.0473 1.66677e-15
-6.93963 -34.0946 8.76728e-16
-6.37413 -33.7779 9.88334e-16
-6.90823 -33.3388 8.4303e-16
-6.88116 -32.5846 8.09332e-16
-6.97484 -34.8518 9.10426e-16
-5.81029 -33.4551 1.09994e-15
-5.84337 -34.2209 1.13364e-15
-1.64825 -38.5959 1.78784e-15
-1.56511 -38.0137 1.81046e-15
-1.98947 -38.0123 1.79053e-15
-2.33226 -37.432 1.79322e-15
-1.30856 -39.1828 1.78515e-15
-1.48299 -37.4305 1.83308e-15
-1.14132 -38.015 1.83039e-15
-2.99283 -26.7658 6.89163e-16
-3.30521 -26.2751 6.26736e-16
-3.51333 -27.0039 6.87718e-16
-3.73005 -27.7272 7.48699e-16
-4.0353 -27.2383 6.86273e-16
-2.47361 -26.5243 6.90608e-16
-2.68573 -27.2621 7.5159e-16
-3.62303 -25.7902 5.6431e-16
-3.10645 -25.5408 5.65755e-16
-2.68765 -35.6993 1.63721e-15
-2.50453 -36.2501 1.68586e-15
-2.07211 -35.6139 1.64707e-15
-1.64148 -34.972 1.60828e-15
-1.45779 -35.5275 1.65693e-15
-2.87262 -35.1505 1.58857e-15
-2.32307 -36.8029 1.7345e-15
-5.8667 -35.0233 1.17756e-15
-6.43263 -35.3374 1.06596e-15
-5.89361 -35.8269 1.22149e-15
-2.7384 -34.5634 1.53252e-15
-2.12248 -34.4706 1.54238e-15
-2.60615 -33.9744 1.47648e-15
-3.09263 -33.4834 1.41057e-15
-2.47606 -33.3836 1.42043e-15
-3.35565 -34.6546 1.52267e-15
-1.50777 -34.3767 1.55224e-15
-3.66629 -31.2051 1.10302e-15
-3.19572 -31.6888 1.19269e-15
-2.9672 -30.9705 1.12052e-15
-2.27007 -30.7316 1.13802e-15
-4.36757 -31.4346 1.08551e-15
-2.72874 -32.1785 1.28236e-15
-3.42878 -32.4026 1.26485e-15
-1.64729 -33.1189 1.41488e-15
-2.06137 -33.2519 1.41766e-15
-1.57618 -33.7475 1.48356e-15
-1.09387 -34.2486 1.54946e-15
-1.72155 -32.4909 1.34621e-15
-1.23377 -32.9847 1.41211e-15
-2.54942 -32.7617 1.35175e-15
-6.71602 -31.0267 7.02973e-16
-6.07197 -30.7239 7.85926e-16
-6.66639 -30.1862 6.58966e-16
-6.77345 -31.8685 7.46981e-16
-5.48362 -31.2701 9.12887e-16
-3.67009 -33.7357 1.38325e-15
-4.24909 -33.9838 1.35593e-15
-3.80142 -34.3177 1.4393e-15
-3.54096 -33.152 1.32721e-15
-4.69873 -33.6531 1.27256e-15
-4.00551 -32.6611 1.23753e-15
-4.47337 -32.1756 1.14786e-15
-4.58393 -32.9151 1.21021e-15
-5.16406 -33.1644 1.18289e-15
-4.94481 -31.6958 1.05819e-15
-6.23333 -32.2958 8.92285e-16
-5.69693 -32.7277 1.03759e-15
-5.58785 -31.9994 9.75238e-16
-2.64612 -27.9996 8.29795e-16
-3.16965 -28.2274 8.28349e-16
-2.61507 -28.7374 9.08e-16
18.556 -33.795 1.46155e-15
17.8112 -33.143 1.43389e-15
17.932 -34.0925 1.52846e-15
17.3112 -34.3918 1.59536e-15
19.1832 -33.4989 1.39465e-15
17.0675 -32.487 1.40623e-15
17.6873 -32.1787 1.33933e-15
-3.22393 -21.5089 1.40852e-16
-3.7485 -20.8165 5.19641e-17
-3.97454 -21.6887 1.30786e-16
-4.21984 -22.5516 2.09608e-16
-2.47334 -21.3294 1.50918e-16
-2.71597 -22.2167 2.2974e-16
