ply
format ascii 1.0
comment Created by Open3D
element vertex 1673
property double x
property double y
property double z
end_header
34.3013 -7.49617 0
34.2079 -5.74195 0
34.0831 -3.78456 0
33.5535 -1.66515 0
32.8761 0.851359 0
31.7908 3.27329 0
30.8605 5.49106 0
29.4266 7.74805 0
27.9844 9.77698 0
26.3407 11.6438 0
24.9775 13.0155 0
23.587 14.2119 0
22.2399 15.274 0
20.9385 16.2402 0
19.6218 17.098 0
18.3765 17.9304 0
17.1122 18.6851 0
15.8926 19.411 0
14.6767 20.0869 0
13.4874 20.7434 0
12.3186 21.3881 0
11.1714 22.02 0
10.0356 22.6491 0
8.92563 23.2844 0
8.33381 22.2752 0
7.75778 21.2601 0
7.19406 20.2426 0
6.64089 19.2346 0
6.10271 18.2318 0
5.57884 17.2424 0
5.07764 16.2663 0
4.58111 15.3152 0
4.09641 14.3811 0
3.62358 13.4654 0
3.17174 12.5688 0
2.72431 11.7028 0
2.29035 10.8575 0
1.86353 10.042 0
1.43487 9.24436 0
1.02299 8.47291 0
0.612886 7.72926 0
0.201264 7.0023 0
-0.198708 6.3009 0
-0.602029 5.62405 0
-1.00449 4.97541 0
-1.39606 4.33658 0
-1.80031 3.72717 0
-2.2024 3.13738 0
-2.60625 2.56798 0
-3.01004 2.01814 0
-3.40352 1.47302 0
-3.80901 0.952036 0
-4.21566 0.447412 0
-4.60558 -0.0541595 0
-5.01828 -0.52692 0
-5.4147 -1.00215 0
-5.82257 -1.45355 0
-6.23617 -1.88859 0
-6.64496 -2.3193 0
-7.05409 -2.74556 0
-7.47536 -3.15286 0
-7.89468 -3.55478 0
-8.30444 -3.95616 0
-8.73065 -4.33967 0
-9.16302 -4.7121 0
-9.58797 -5.08663 0
-10.0293 -5.44253 0
-10.4678 -5.79928 0
-10.9146 -6.15034 0
-11.3721 -6.48781 0
-11.8279 -6.82753 0
-12.2843 -7.16536 0
-12.7547 -7.49143 0
-13.226 -7.81888 0
-13.7088 -8.1362 0
-14.1911 -8.45759 0
-14.6816 -8.77427 0
-15.1795 -9.08554 0
-15.678 -9.40123 0
-16.1829 -9.71399 0
-16.689 -10.0311 0
-17.1987 -10.3477 0
-17.7083 -10.6668 0
-18.2183 -10.99 0
-18.7299 -11.3131 0
-19.24 -11.6382 0
-19.7499 -11.9653 0
-20.2593 -12.2929 0
-19.9252 -12.8123 0
-19.5907 -13.3312 0
-19.2554 -13.8492 0
-18.9193 -14.3652 0
-18.5831 -14.8788 0
-18.2463 -15.3885 0
-17.9119 -15.896 0
-17.5776 -16.3991 0
-17.2456 -16.9007 0
-5.85228 -42.8314 2.19511e-15
-5.27684 -43.3772 1.66289e-15
-6.11812 -43.5009 9.09992e-16
-6.6085 -42.8816 1.18476e-15
-3.65612 -44.1091 1.02041e-15
-6.9143 -41.5482 1.8762e-15
-4.47333 -43.917 1.16316e-15
-7.04338 -42.3009 1.1186e-15
-7.62028 -41.146 1.00047e-15
-19.093 -12.4098 -1.02598e-16
-17.1536 -14.3528 -3.44028e-16
-14.4983 -18.2782 7.67901e-17
-11.6647 -23.1654 6.05203e-16
-9.31124 -29.3701 1.25042e-15
-8.01071 -34.8289 1.75846e-15
-3.15727 -0.821897 -4.74927e-16
1.19603 4.56397 -4.64996e-16
5.15296 10.7785 -4.65458e-16
8.49972 16.2354 -4.68389e-16
9.83051 20.9868 -1.53094e-16
12.1539 -42.7719 2.68937e-15
17.893 -42.6258 2.80553e-15
23.2372 -42.9426 2.55794e-15
27.2736 -42.6571 2.46514e-15
29.7246 -43.4974 5.22111e-16
-2.50071 -43.2079 2.5664e-15
-2.76938 -43.9704 1.29769e-15
-7.27917 -39.264 2.11998e-15
-17.834 -12.3839 -3.29634e-16
-17.5612 -15.2341 -1.49456e-16
-18.0414 -14.2908 -2.24696e-16
-15.329 -10.9356 -4.60756e-16
-14.8427 -19.0632 7.23451e-17
-15.5091 -18.3062 1.50333e-17
-11.1081 -8.33111 -4.69671e-16
-13.0204 -20.8451 3.50011e-16
-12.2301 -23.9132 3.43725e-16
-12.6488 -23.038 3.09579e-16
-10.5036 -25.9721 8.9391e-16
-8.51695 -32.3854 1.50918e-15
-9.18572 -30.5854 1.1631e-15
-10.3394 -29.086 5.90898e-16
3.05656 -42.8541 2.77908e-15
-8.11869 -36.5667 1.34556e-15
-8.72066 -35.5242 8.64968e-16
-8.85412 -34.4096 9.53063e-16
-4.17616 -0.97916 -3.08829e-16
-3.41581 0.103879 -2.48105e-16
31.0219 -12.4793 7.78602e-16
-7.01628 -4.83645 -4.89207e-16
0.938477 6.14213 -2.64931e-16
26.453 1.96065 2.87425e-16
-0.974671 1.46586 -4.64229e-16
0.0174061 3.71482 -3.87738e-16
4.34479 12.3873 -2.30099e-16
19.2442 12.7459 -7.5388e-17
3.47276 8.91919 -3.80809e-16
3.54992 10.5822 -2.7e-16
6.4675 16.2011 -2.35124e-16
7.70362 17.8134 -2.93927e-16
12.6204 17.7412 -3.92764e-16
30.325 -23.7766 1.37184e-15
14.6723 -42.9285 2.72776e-15
13.0684 -42.9168 2.67741e-15
11.3899 -43.7192 1.45714e-15
9.24734 -42.8624 2.54664e-15
29.7584 -31.341 1.89589e-15
20.506 -42.8272 2.67751e-15
18.581 -43.8234 1.38236e-15
17.4627 -43.7516 1.58488e-15
29.4879 -36.6386 2.10598e-15
25.0735 -43.1984 1.80367e-15
23.7684 -43.7601 1.2915e-15
22.5562 -43.5082 1.8122e-15
29.3181 -39.8638 2.36662e-15
28.4472 -43.0682 1.70362e-15
26.3226 -43.6683 1.35574e-15
29.4718 -41.9324 1.51578e-15
-0.898066 -43.3084 2.10373e-15
-1.80693 -43.8292 1.46966e-15
-7.41801 -40.246 1.73801e-15
-8.17492 -38.6928 1.06052e-15
-17.5618 -11.2572 -2.08337e-16
-16.5549 -15.818 -1.63057e-16
-16.4474 -11.122 -3.73134e-16
-14.9946 -9.84229 -2.64264e-16
-12.5682 -8.91253 -3.80437e-16
-12.0984 -8.01869 -2.71282e-16
-11.193 -7.27914 -2.43497e-16
-12.7927 -22.2149 3.51071e-16
-13.849 -20.7428 1.87547e-16
-11.3901 -25.8642 4.48824e-16
-10.4761 -27.3584 7.7606e-16
-11.0038 -26.7357 5.2245e-16
-9.43464 -31.7414 7.97036e-16
-8.66506 -33.4177 1.29984e-15
-10.1295 -30.1083 5.00897e-16
3.69105 -43.746 1.59467e-15
2.63292 -43.9665 1.22497e-15
6.10128 -42.921 2.62818e-15
-8.24575 -37.6547 1.11328e-15
-4.59802 -2.88132 -4.96604e-16
29.4687 -6.49038 5.53263e-16
31.1837 -10.5503 6.82033e-16
32.5463 -13.9719 4.55652e-16
-8.6376 -6.48148 -4.89054e-16
-7.83834 -4.8367 -3.50304e-16
-7.1564 -3.97775 -2.57101e-16
24.9317 7.78086 1.09156e-16
28.0328 5.04994 1.16391e-16
29.8128 0.62929 1.91581e-16
-2.13295 0.719221 -3.81364e-16
-1.1687 2.94127 -2.68069e-16
-0.1346 5.08516 -1.97518e-16
6.04255 13.8614 -3.17512e-16
16.5696 15.0319 -2.13875e-16
22.1081 13.3881 -1.38986e-17
2.2579 6.88546 -3.79464e-16
12.403 20.1029 -1.78738e-16
14.5357 18.651 -2.02314e-16
31.3318 -25.0781 7.76279e-16
31.1837 -19.9964 9.43299e-16
30.7744 -22.5092 1.24689e-15
15.7709 -42.746 2.75959e-15
12.6332 -43.9013 1.25058e-15
13.8459 -43.5922 1.81388e-15
10.3292 -43.268 2.0823e-15
8.41323 -43.7589 1.39701e-15
30.5429 -32.2382 1.11357e-15
30.0388 -27.8979 1.61735e-15
29.9748 -30.1696 1.78933e-15
19.9861 -43.9326 1.19246e-15
21.372 -43.8042 1.40676e-15
30.1067 -37.5479 1.24684e-15
29.8975 -34.8902 1.54856e-15
30.1873 -36.0241 1.19661e-15
30.0265 -40.4763 1.19035e-15
29.8369 -39.0983 1.62728e-15
27.54 -43.9471 9.86837e-16
0.721985 -43.5276 1.89352e-15
-0.104233 -43.9537 1.11725e-15
-8.11611 -39.7064 8.47332e-16
-15.6335 -17.1702 -5.20656e-17
-16.0669 -10.2002 -1.95853e-16
-13.8976 -9.7606 -3.78517e-16
-13.5327 -21.6553 1.91644e-16
-10.5491 -28.1504 6.11749e-16
-9.43658 -32.7997 6.05718e-16
7.51811 -43.4324 1.93871e-15
5.61737 -43.6932 1.59386e-15
-5.76051 -3.64479 -4.12237e-16
-4.95776 -1.80066 -3.08318e-16
29.8592 -3.31964 3.62056e-16
33.091 -11.3185 3.28742e-16
32.4094 -8.25573 3.59808e-16
31.4151 -15.8814 7.68959e-16
-9.82147 -7.05433 -4.09076e-16
-8.79264 -5.32711 -2.67352e-16
24.0475 10.8663 3.50581e-17
-2.19092 2.02896 -1.96813e-16
19.4657 15.7428 -6.15776e-17
16.7097 17.5322 -1.29339e-16
2.02914 8.39489 -2.10894e-16
31.8452 -23.2804 5.91874e-16
31.8522 -21.4509 6.74356e-16
16.2866 -43.9507 1.22806e-15
14.9793 -43.8358 1.41329e-15
9.52137 -44.0043 1.02706e-15
30.6041 -26.5157 1.21238e-15
30.8863 -30.8093 8.56935e-16
30.7474 -29.1975 1.11943e-15
30.4486 -33.6917 9.81516e-16
1.51246 -43.8381 1.42703e-15
-16.6001 -16.8343 -5.76336e-17
-13.6009 -8.80617 -2.10787e-16
6.62568 -43.8503 1.29923e-15
-5.85236 -2.40979 -2.09196e-16
32.282 -5.12851 2.47807e-16
32.172 -17.2235 5.68737e-16
-9.74401 -5.92576 -2.01356e-16
31.3142 -27.7539 6.56753e-16
-4.1297 -42.5957 2.72944e-15
-5.27916 -41.3853 3.02972e-15
-17.4235 -13.5201 -3.97122e-16
-13.181 -19.2601 2.42682e-16
-7.53662 -35.5636 1.96114e-15
4.94445 9.35731 -4.97627e-16
10.0113 17.4021 -4.62963e-16
19.75 -41.8626 3.18594e-15
23.8834 -42.2491 2.798e-15
21.8415 -41.9879 3.23077e-15
26.1701 -42.2011 2.74282e-15
-1.77186 -42.76 2.8346e-15
-16.4559 -14.8628 -2.97581e-16
-16.8338 -11.9275 -4.61963e-16
-11.5631 -9.03756 -4.9808e-16
-11.741 -22.2389 5.74012e-16
-10.5268 -24.3727 8.46802e-16
-9.79975 -26.6476 1.08281e-15
-8.37217 -31.3499 1.59348e-15
-7.91429 -34.0282 1.8706e-15
-7.2641 -38.2367 2.17554e-15
-3.35869 -2.65786 -5.57984e-16
-7.46062 -6.43608 -5.58898e-16
23.9725 4.75601 2.16067e-16
-2.16606 -0.764269 -5.04201e-16
0.170957 2.26722 -5.01265e-16
8.16689 14.5428 -4.72467e-16
6.35252 11.6783 -4.73479e-16
20.1017 10.1487 1.18266e-17
2.41387 5.37661 -4.95403e-16
13.8654 15.6476 -3.68651e-16
16.7714 -41.996 3.15932e-15
11.1406 -42.4458 2.84465e-15
28.5006 -32.8564 2.40838e-15
28.8162 -35.7245 2.38524e-15
28.7434 -40.621 2.65803e-15
28.3767 -38.2823 2.87763e-15
0.151371 -42.7141 2.715e-15
-14.6333 -17.4534 6.20252e-18
-14.1989 -10.7508 -4.89366e-16
-8.94971 -28.3608 1.41362e-15
8.05967 -42.4297 2.83664e-15
4.49546 -41.8771 3.16938e-15
-6.13949 -4.94182 -5.09096e-16
27.0664 -1.19608 4.0157e-16
30.3434 -14.5341 9.36884e-16
-10.2043 -8.10035 -4.96936e-16
29.6986 -25.2155 1.57148e-15
2.27474 -42.4411 3.14904e-15
30.4616 -18.3723 1.09087e-15
-13.0928 -20.0613 3.05122e-16
-10.5654 -25.1809 8.64115e-16
5.21108 -42.5752 2.79985e-15
23.1405 -41.1919 3.18491e-15
25.0994 -41.3896 2.99892e-15
-2.76524 -42.3436 3.07241e-15
-16.2723 -13.9029 -4.10654e-16
-7.11399 -34.5557 2.17943e-15
-6.36655 -36.9903 2.5193e-15
-5.39681 -39.2239 2.84725e-15
10.2016 15.0921 -5.00182e-16
6.52896 9.80312 -5.12582e-16
8.21414 12.3879 -4.7968e-16
21.4132 5.97865 1.65034e-16
5.63861 5.73143 -4.34919e-16
27.9936 -34.6803 2.5895e-15
27.1336 -41.2424 3.11642e-15
27.7422 -40.1388 3.0887e-15
27.7012 -36.7629 2.79307e-15
-0.901869 -42.0812 3.05119e-15
-14.2664 -15.2449 -1.86089e-16
-11.7632 -11.1296 -4.33653e-16
-8.4806 -27.2921 1.35798e-15
24.2987 0.999323 3.51952e-16
27.3934 -12.2097 9.39295e-16
-10.4886 -9.18088 -5.1246e-16
0.814024 -41.7515 3.15479e-15
29.0896 -16.7152 1.15304e-15
-14.2356 -19.8497 1.34128e-16
-11.2312 -19.9698 4.52943e-16
-11.6216 -24.8138 4.53343e-16
-8.78053 -25.0615 1.11687e-15
4.67329 -43.7775 1.44801e-15
6.36107 -40.7489 3.16824e-15
-6.91139 -36.3669 2.27121e-15
-6.35537 -38.7672 2.67409e-15
4.8722 7.59298 -5.02183e-16
-15.4832 -15.3181 -2.32684e-16
-11.9331 -9.97415 -4.99124e-16
29.1683 -13.2026 9.77869e-16
-12.1924 -20.4409 4.31145e-16
-9.69442 -25.5807 1.08646e-15
6.16338 -41.9072 3.1357e-15
-5.18802 -35.3558 2.40833e-15
-9.68436 -24.6327 1.00637e-15
-8.73308 -26.0638 1.218e-15
-5.8503 -36.3232 2.49276e-15
-8.59917 -23.0319 9.05428e-16
-6.81457 -25.692 1.26795e-15
-8.77268 -24.0838 1.01041e-15
-7.64569 -26.38 1.31011e-15
-18.5944 -13.4431 -1.95864e-16
8.54174 19.4531 -2.37366e-16
-5.17509 -42.3146 2.82117e-15
-6.13405 -42.0455 2.45826e-15
19.2367 -42.8106 2.67668e-15
21.6661 -42.7017 2.80796e-15
-14.8724 -12.512 -4.80258e-16
-10.7444 -22.8125 7.45767e-16
-7.53846 -29.8553 1.69732e-15
-6.92389 -32.638 2.04195e-15
-4.01262 -1.99101 -5.13286e-16
-7.9492 -5.74235 -5.12746e-16
-2.0722 -2.34741 -5.11058e-16
0.177319 -0.484805 -4.7803e-16
2.41361 2.64237 -4.92356e-16
21.4423 11.1458 1.42934e-17
14.9038 16.9597 -2.99551e-16
15.9658 11.3856 -1.67864e-16
16.8573 -43.0197 2.62832e-15
15.1314 -40.5911 3.18444e-15
9.87502 -40.8961 3.18736e-15
29.4996 -32.6618 2.00451e-15
26.7396 -29.2517 2.1822e-15
29.1684 -38.291 2.43655e-15
-13.6885 -17.8354 9.58509e-17
-9.74395 -28.5274 1.1451e-15
-6.25553 -6.29995 -5.15122e-16
-4.11367 -4.73248 -4.979e-16
26.4906 -5.90136 6.12493e-16
-8.48369 -8.21454 -5.037e-16
28.0539 -27.3036 2.00551e-15
27.6802 -23.2642 1.68769e-15
2.16622 -43.1439 2.59367e-15
24.0675 -40.9595 3.15347e-15
23.569 -38.8494 3.03506e-15
24.608 -39.7964 3.10445e-15
23.461 -40.0889 3.14572e-15
-7.20252 -37.2651 2.17901e-15
9.60063 13.4137 -4.90659e-16
12.4503 12.3528 -3.43594e-16
10.4502 11.6941 -4.09274e-16
7.73081 10.728 -4.9546e-16
9.69004 7.38131 -2.94029e-16
8.38904 9.08136 -4.21695e-16
9.08957 10.6275 -4.37588e-16
7.99939 7.20656 -3.71084e-16
10.6213 9.20636 -3.18569e-16
28.143 -41.7493 2.75616e-15
26.1404 -41.0195 3.15466e-15
26.645 -40.0415 3.13642e-15
-1.85485 -41.8941 3.17951e-15
-2.85971 -40.4151 3.04473e-15
-1.5066 -40.9986 3.12522e-15
-2.44606 -41.4056 3.16829e-15
21.8126 3.3726 2.52364e-16
20.2941 -0.618217 3.5063e-16
19.9029 2.68138 2.37191e-16
22.2129 0.246434 3.57524e-16
28.0769 -10.268 8.33603e-16
-0.0394775 -41.7551 3.16353e-15
0.40212 -40.0277 3.0445e-15
0.212863 -40.9877 3.14999e-15
-0.544497 -41.2289 3.15946e-15
2.10959 -40.4208 3.10516e-15
1.14511 -40.7658 3.13424e-15
1.9564 -41.5772 3.19918e-15
3.05824 -40.9841 3.17308e-15
-6.35662 -37.7765 2.59153e-15
-5.5297 -37.2178 2.61709e-15
-6.38613 -39.938 2.68823e-15
3.8882 6.02699 -4.98315e-16
-14.9301 -14.1733 -3.27452e-16
-14.7433 -16.3204 -1.03761e-16
-10.4778 -10.5499 -4.17655e-16
-12.9653 -10.6597 -4.94432e-16
28.7837 -14.7765 1.08116e-15
25.7465 -15.8302 1.1481e-15
27.4249 -15.4138 1.12917e-15
27.3769 -18.2962 1.31964e-15
26.3195 -14.0983 1.04221e-15
26.8369 -17.0033 1.22987e-15
24.5521 -18.5852 1.32991e-15
25.279 -17.5164 1.25876e-15
25.9058 -19.05 1.37005e-15
22.2136 -15.609 1.10141e-15
23.9627 -16.114 1.15338e-15
-12.1163 -19.3284 3.34026e-16
-11.2839 -21.0779 5.53987e-16
5.25007 -41.0923 3.16056e-15
7.15754 -41.5447 3.17245e-15
-6.42941 -35.4638 2.34471e-15
-5.16602 -34.3785 2.29607e-15
-6.03176 -34.5107 2.28986e-15
-6.67438 -33.5703 2.15912e-15
-9.82374 -23.5544 8.86236e-16
-7.09652 -23.8206 1.05589e-15
10.6754 19.1499 -3.69517e-16
-15.7428 -12.0126 -5.16259e-16
-15.5168 -13.0927 -4.6026e-16
-14.5804 -11.7235 -5.12533e-16
-8.19891 -30.5131 1.65357e-15
-7.29649 -30.9879 1.82437e-15
-7.64293 -33.1105 1.94755e-15
-7.56361 -32.0286 1.89366e-15
-0.905424 0.0555716 -5.19262e-16
-0.711341 -1.47851 -4.73985e-16
0.237837 0.795536 -5.16494e-16
1.57392 1.5368 -4.85468e-16
1.31398 3.10942 -5.25264e-16
2.45084 3.91015 -5.22672e-16
5.24318 2.72065 -3.28791e-16
3.71455 3.05874 -4.34555e-16
16.9189 12.652 -1.66252e-16
18.0285 10.3363 -5.87606e-17
14.6295 13.2772 -2.77406e-16
14.8831 -41.9357 3.18456e-15
13.989 -41.1996 3.22012e-15
15.8517 -41.4784 3.2149e-15
17.3253 -39.8908 3.12503e-15
16.588 -40.8265 3.20851e-15
10.1088 -42.0447 3.04087e-15
11.0037 -41.0625 3.17573e-15
9.06573 -41.6742 3.15165e-15
8.1542 -40.0162 3.10457e-15
8.97933 -40.5634 3.16206e-15
8.12947 -41.1248 3.17895e-15
9.7864 -39.0303 3.0176e-15
9.62211 -40.0049 3.11094e-15
10.4293 -39.881 3.10281e-15
11.7956 -38.2203 2.95131e-15
11.4577 -39.6194 3.08233e-15
28.547 -29.1255 2.14874e-15
-5.08467 -4.5734 -5.25738e-16
-4.9301 -5.70893 -4.76649e-16
27.5474 -4.05701 5.21669e-16
24.8856 -2.61904 4.81433e-16
-9.37387 -8.78211 -5.00445e-16
-9.3236 -7.91598 -5.31027e-16
29.0381 -26.6705 1.83073e-15
28.1109 -25.2995 1.82282e-15
28.7413 -21.3473 1.52172e-15
21.8077 -39.8501 3.12512e-15
6.50382 7.12248 -4.44805e-16
25.6674 -40.2243 3.13645e-15
-3.8693 -40.9435 3.08844e-15
13.0059 5.05489 -5.80762e-17
29.7518 -9.24646 7.18133e-16
29.4601 -11.3161 8.65574e-16
3.35756 7.55432 -4.60182e-16
-15.7769 -14.5613 -3.32783e-16
-12.8165 -16.3364 1.10382e-18
-13.7299 -16.8663 2.02562e-18
-15.7774 -16.2834 -1.35667e-16
-11.1353 -9.69915 -5.17662e-16
-12.9898 -9.65199 -4.59251e-16
27.822 -13.9462 1.0429e-15
26.3083 -18.0218 1.29904e-15
23.2757 -22.6272 1.6312e-15
22.7184 -11.3783 8.44786e-16
22.6566 -17.2851 1.2221e-15
4.15133 -40.9682 3.17811e-15
3.94541 -38.8691 2.9567e-15
4.60887 -39.9173 3.0723e-15
-7.31534 -33.8212 2.13677e-15
-7.89619 -24.4905 1.09315e-15
-7.92896 -23.6509 1.00162e-15
-7.34435 -22.7632 9.33838e-16
-12.7313 -12.4234 -3.70865e-16
0.0849753 -4.92732 -2.21967e-16
4.74885 4.34426 -4.29243e-16
3.92743 0.22064 -2.82991e-16
17.9521 7.52341 2.66702e-17
13.8801 -42.4273 3.02755e-15
12.8749 -41.7752 3.17037e-15
18.3568 -40.5642 3.18712e-15
10.7434 -38.6098 2.98253e-15
9.28269 -36.6961 2.78607e-15
9.86062 -37.6823 2.88717e-15
11.0111 -37.2364 2.85231e-15
13.3252 -39.5601 3.08376e-15
29.5323 -29.135 1.94784e-15
28.8692 -30.3251 2.18943e-15
-4.47265 -8.80534 -2.21062e-16
22.6325 -2.53797 4.52447e-16
23.2297 -6.72822 6.19932e-16
20.4148 -5.20629 5.14386e-16
30.2566 -21.3347 1.32536e-15
29.508 -22.5867 1.55598e-15
29.4739 -19.9896 1.34904e-15
28.1605 -22.5402 1.63143e-15
28.6521 -23.8395 1.68741e-15
27.4303 -21.5155 1.55431e-15
28.7651 -18.713 1.3226e-15
27.61 -20.0135 1.44056e-15
22.6471 -39.3045 3.07627e-15
21.8366 -37.0925 2.87928e-15
22.6826 -38.0837 2.96743e-15
5.99528 8.44649 -5.12461e-16
-3.39261 -41.5311 3.12445e-15
11.6997 6.72039 -1.77313e-16
-13.7206 -15.9902 -8.32884e-17
-13.0108 -15.2481 -1.16101e-16
-9.93125 -18.0133 3.22371e-16
23.8896 -20.505 1.46835e-15
24.7612 -12.4493 9.30037e-16
23.895 -17.7091 1.26275e-15
3.66074 -40.006 3.074e-15
2.8589 -40.0155 3.06832e-15
1.74753 -38.5033 2.8926e-15
2.21037 -39.3637 2.99159e-15
-6.95492 -24.7618 1.16208e-15
-5.07343 -24.3468 1.19388e-15
-5.95671 -25.0299 1.23099e-15
-7.82347 -25.426 1.19787e-15
-13.8615 -12.6141 -4.16022e-16
-13.4735 -11.6285 -4.76272e-16
-13.7972 -13.6338 -3.15484e-16
-0.220113 -3.77007 -3.15044e-16
7.38349 3.52918 -2.48784e-16
3.49253 4.56758 -5.02871e-16
3.07385 1.589 -4.0359e-16
17.5927 -41.2606 3.20716e-15
6.31239 -37.3528 2.82343e-15
8.97165 -38.4126 2.95222e-15
13.3886 -35.8835 2.7405e-15
13.1495 -40.4064 3.16254e-15
12.5996 -39.2845 3.05547e-15
12.8145 -37.8133 2.91855e-15
28.6885 -31.7536 2.31486e-15
26.6912 -32.7829 2.48879e-15
27.7159 -31.0102 2.329e-15
27.6479 -32.2652 2.43838e-15
27.5794 -33.5765 2.52941e-15
26.2723 -35.3368 2.71572e-15
27.0813 -34.6159 2.64861e-15
27.4132 -35.6017 2.7111e-15
26.1185 -33.9546 2.59432e-15
-7.07664 -10.7327 -2.1086e-16
-5.07582 -7.50032 -3.60706e-16
24.0871 -5.1337 5.65037e-16
21.7566 -38.5461 3.00875e-15
-10.8521 -18.8598 3.5958e-16
-10.5509 -15.741 6.57878e-17
24.6557 -19.6296 1.40682e-15
22.3402 -19.9986 1.41939e-15
23.2868 -14.0934 1.0144e-15
1.33378 -39.7806 3.02755e-15
0.764455 -38.9281 2.92648e-15
2.84515 -38.363 2.89071e-15
-6.12651 -24.0482 1.12051e-15
-6.38957 -23.1833 1.01913e-15
-5.3689 -21.1783 8.58303e-16
-5.32811 -23.1888 1.06392e-15
-6.12175 -22.1661 9.25603e-16
-4.05442 -26.5583 1.46318e-15
-13.7373 -14.4809 -2.30891e-16
-12.7151 -14.1293 -2.07785e-16
-0.942699 -2.74946 -4.23565e-16
1.95243 -2.65034 -2.46424e-16
6.20464 3.94183 -3.31037e-16
6.6497 2.12083 -2.22648e-16
4.44274 1.5679 -3.2021e-16
5.53174 -38.5377 2.93706e-15
8.96187 -39.5102 3.0595e-15
7.09355 -38.2764 2.92431e-15
12.1441 -40.6675 3.18399e-15
12.0628 -36.8899 2.82656e-15
24.0544 -36.3804 2.81451e-15
-8.26542 -9.55165 -3.81972e-16
-5.30403 -6.76371 -4.31128e-16
-2.19432 -7.15822 -2.09463e-16
20.0301 -39.6578 3.10737e-15
-11.977 -17.7125 1.83665e-16
-8.5403 -20.3261 6.25952e-16
-11.7733 -15.7764 3.45072e-18
23.3406 -18.891 1.34394e-15
21.6862 -18.4512 1.29726e-15
24.8115 -14.5545 1.05858e-15
3.12375 -39.3169 2.99615e-15
-5.05649 -22.1713 9.71521e-16
-3.27245 -21.2222 9.50959e-16
-4.26113 -22.7705 1.06455e-15
-4.24837 -21.5662 9.44783e-16
-4.25498 -19.2654 7.19965e-16
-3.9321 -20.3821 8.41858e-16
-5.32094 -26.5495 1.41728e-15
2.23253 -35.8516 2.61214e-15
-12.9784 -13.2188 -3.09337e-16
-11.889 -13.253 -2.45917e-16
0.884753 -1.74144 -3.65122e-16
5.58902 1.39416 -2.46758e-16
6.7462 -1.48286 -4.49511e-17
6.43424 0.272457 -1.45989e-16
4.8811 -38.957 2.97449e-15
4.0418 -36.8021 2.73989e-15
8.11923 -38.921 2.99631e-15
7.2971 -39.4251 3.04079e-15
8.09092 -37.8047 2.88534e-15
7.29971 -40.455 3.14347e-15
6.38538 -38.9907 2.99062e-15
8.88207 -37.4234 2.85424e-15
7.25449 -37.2383 2.82124e-15
6.46878 -35.0567 2.59109e-15
8.12616 -36.4474 2.75055e-15
6.63636 -36.2395 2.71343e-15
11.8521 -41.7688 3.17357e-15
10.9589 -34.2635 2.5657e-15
12.9329 -36.6927 2.81348e-15
14.9302 -36.5347 2.81059e-15
13.9056 -37.2347 2.87011e-15
14.3344 -38.5493 2.99408e-15
23.5237 -37.6945 2.93196e-15
-3.58997 -5.85307 -3.90558e-16
20.8813 -39.1258 3.06027e-15
20.9489 -40.4372 3.17746e-15
19.9868 -38.3715 2.99224e-15
-11.6958 -18.3788 2.65818e-16
-9.54578 -20.1449 5.57811e-16
-7.0477 -20.6088 7.25423e-16
-4.37746 -23.7124 1.15548e-15
-2.68425 -24.3769 1.28588e-15
-3.84704 -24.641 1.27073e-15
-3.44517 -23.5658 1.1764e-15
-5.06106 -20.0501 7.60102e-16
-1.48292 -19.5782 8.66597e-16
-5.90448 -25.876 1.32326e-15
-4.83809 -25.5094 1.32443e-15
-6.51202 -26.6665 1.38582e-15
2.01874 -36.9157 2.72337e-15
2.92403 -0.682612 -2.95634e-16
1.4737 -0.212752 -4.11602e-16
10.0213 -0.890523 7.38487e-17
5.34223 -0.674463 -1.57017e-16
3.70376 -37.7772 2.83849e-15
2.93502 -37.0308 2.7491e-15
4.69115 -37.8606 2.85859e-15
3.3864 -35.83 2.62771e-15
5.25582 -36.5555 2.72942e-15
6.15429 -38.1583 2.90385e-15
6.60775 -39.8648 3.0803e-15
5.65854 -39.7137 3.05875e-15
7.33289 -35.4356 2.64047e-15
7.60687 -33.0787 2.40757e-15
8.95048 -34.5651 2.57301e-15
7.23687 -34.2869 2.52356e-15
8.20009 -35.0612 2.61317e-15
11.3029 -35.7563 2.71249e-15
19.2828 -20.9452 1.46465e-15
22.5665 -36.0969 2.79054e-15
25.5108 -37.3115 2.89428e-15
25.858 -38.8672 3.03256e-15
26.7893 -37.6871 2.92387e-15
22.0085 -41.1451 3.22701e-15
20.9652 -41.7266 3.20136e-15
20.8242 -37.7467 2.93711e-15
20.792 -36.3392 2.81139e-15
-10.3882 -19.6811 4.67484e-16
-9.69248 -19.0536 4.39265e-16
-7.80921 -18.437 4.71573e-16
-8.91254 -18.3056 4.03605e-16
-8.69728 -16.6038 2.46854e-16
-8.48564 -19.3975 5.34398e-16
-8.32636 -17.5298 3.56345e-16
-7.11492 -19.5157 6.12502e-16
-6.43169 -16.763 3.76723e-16
-7.30594 -17.4451 3.98972e-16
-6.34093 -21.1701 8.14519e-16
-2.20112 -22.5179 1.11872e-15
-4.66499 -20.8069 8.51992e-16
-2.62318 -20.2248 8.81191e-16
-5.43405 -28.7353 1.65127e-15
-7.45181 -27.8914 1.48626e-15
2.15237 -37.6755 2.80782e-15
2.53689 0.501906 -3.82193e-16
8.07753 -0.683597 -1.88616e-17
5.13989 0.518297 -2.28875e-16
4.87614 -4.26652 7.86662e-18
3.37159 -1.83398 -2.07416e-16
5.75538 -35.5426 2.63122e-15
4.92078 -35.2594 2.59046e-15
8.29486 -33.955 2.50453e-15
9.4407 -32.8683 2.41261e-15
20.5327 -19.7227 1.38157e-15
22.9046 -37.0554 2.8757e-15
24.5071 -38.1543 2.97155e-15
27.403 -38.8498 3.01444e-15
-5.6951 -18.3358 5.63716e-16
-7.56325 -16.2584 2.71369e-16
-2.44108 -23.3693 1.19381e-15
-0.988241 -24.297 1.33515e-15
-1.83025 -24.0947 1.28705e-15
-1.43861 -23.1564 1.20845e-15
-1.37308 -26.3209 1.52563e-15
-1.82045 -25.156 1.39363e-15
-3.33893 -19.4319 7.76252e-16
-2.82175 -17.7298 6.39521e-16
-3.49776 -18.4629 6.77573e-16
-4.59742 -18.1202 5.9489e-16
-2.3827 -18.7324 7.5104e-16
-0.701834 -17.2277 6.85215e-16
-1.14577 -18.3646 7.68711e-16
-5.74297 -27.5626 1.51179e-15
-7.37811 -27.1461 1.40559e-15
8.8837 0.847708 -5.25759e-17
9.59645 -5.40789 2.67147e-16
5.62223 -2.21598 -6.35649e-17
4.25678 -1.32594 -1.83465e-16
5.32588 -32.6933 2.33279e-15
4.28896 -35.826 2.64052e-15
3.34055 -33.8087 2.41371e-15
-5.1152 -19.029 6.58009e-16
-5.96362 -19.2928 6.44485e-16
-6.13328 -20.3057 7.37045e-16
-6.32247 -17.6827 4.70443e-16
-5.49136 -17.3413 4.7814e-16
-6.69932 -18.4574 5.27607e-16
-4.81131 -15.3706 3.27414e-16
-5.40648 -16.1531 3.70102e-16
-7.98334 -16.9568 3.17618e-16
-8.89442 -14.5054 3.47314e-17
-1.43462 -21.507 1.04949e-15
-0.598037 -25.4169 1.45831e-15
-2.67764 -26.1838 1.47034e-15
1.49628 -22.5399 1.24499e-15
-1.83634 -17.2656 6.40505e-16
-4.8123 -27.2309 1.50846e-15
-3.23123 -28.2918 1.6739e-15
-4.04443 -27.6347 1.57775e-15
-3.02385 -27.2664 1.57186e-15
-4.29538 -28.6045 1.67406e-15
-1.3196 -28.5109 1.75304e-15
-4.86912 -27.9421 1.58335e-15
-2.18515 -27.9147 1.66579e-15
-2.06016 -27.0275 1.57715e-15
-2.58524 -30.2487 1.90287e-15
-2.38217 -28.9907 1.77364e-15
-6.52205 -28.3342 1.56945e-15
8.73724 -3.77008 1.56611e-16
4.40959 -2.86448 -9.27879e-17
3.7279 -4.03702 -6.43465e-17
6.46099 -33.1602 2.3987e-15
2.8518 -34.7488 2.50438e-15
1.73003 -34.4511 2.45307e-15
3.97622 -34.7505 2.52297e-15
4.41336 -33.5064 2.40061e-15
-6.59863 -14.6471 1.68798e-16
-3.70867 -16.3489 4.71419e-16
-4.54185 -16.9093 4.83378e-16
-8.42891 -15.5694 1.60761e-16
-1.61773 -22.1611 1.10543e-15
-2.91624 -25.2291 1.36416e-15
0.447799 -23.2807 1.28273e-15
1.08412 -19.8704 9.8744e-16
-1.52871 -14.459 4.07641e-16
0.805345 -27.4041 1.69739e-15
-4.68291 -30.8073 1.90437e-15
-1.5021 -29.6343 1.86631e-15
-6.72385 -27.5231 1.47206e-15
-6.37711 -29.4288 1.697e-15
-7.40464 -28.8114 1.59188e-15
-8.3293 -29.0799 1.5553e-15
7.95001 -2.27004 5.0627e-17
9.2858 -2.39881 1.12949e-16
12.111 -4.30379 2.95284e-16
10.7593 -2.82968 1.85947e-16
13.1156 -0.982361 1.87608e-16
10.5159 -4.44477 2.51978e-16
12.1058 -2.29144 2.08716e-16
11.9436 -8.29412 4.84932e-16
10.858 -6.54368 3.64308e-16
6.83491 -4.76317 1.27796e-16
3.04544 -2.78852 -1.73627e-16
1.7731 -4.7352 -1.32912e-16
6.25515 -34.1702 2.49765e-15
5.60401 -34.6632 2.53878e-15
-5.65901 -14.9156 2.42223e-16
-5.45101 -13.9387 1.63927e-16
-6.53398 -15.6157 2.62764e-16
-4.45781 -16.0182 4.04629e-16
-3.88612 -15.2211 3.60221e-16
-2.82039 -16.7158 5.47014e-16
-1.99739 -15.7683 4.99957e-16
-9.42338 -15.6635 1.17811e-16
-7.58812 -14.8596 1.36977e-16
-0.498949 -23.4666 1.2699e-15
0.939773 -24.5526 1.41932e-15
-0.435795 -19.2513 8.77059e-16
-0.136728 -26.646 1.59498e-15
-4.69055 -29.6928 1.78062e-15
0.524138 -29.6155 1.91615e-15
-8.14378 -28.274 1.50367e-15
-8.53087 -29.8714 1.55511e-15
11.4241 -0.157786 9.39235e-17
15.6352 -6.05189 4.6361e-16
12.3768 -6.27296 3.95491e-16
5.81302 -3.77183 2.74659e-17
5.802 -5.39647 1.16007e-16
2.45034 -3.79577 -1.49988e-16
3.01208 -5.232 -3.34585e-17
1.09205 -3.37112 -2.57164e-16
4.84441 -34.3493 2.4951e-15
-3.8523 -14.0654 2.58639e-16
-9.9637 -16.8076 2.01132e-16
-10.0585 -14.7551 -3.26299e-18
-7.92418 -12.7947 -7.28892e-17
-0.0103282 -24.4364 1.37972e-15
0.486327 -25.5348 1.50205e-15
2.80884 -26.0094 1.61134e-15
1.63782 -25.5814 1.53893e-15
-0.262831 -27.9472 1.72362e-15
-1.19493 -27.3996 1.64129e-15
-3.49257 -29.3743 1.78231e-15
-5.62436 -30.3083 1.82019e-15
-0.429711 -29.197 1.84864e-15
-0.587528 -31.5851 2.09744e-15
10.1552 0.819448 3.42802e-18
9.65472 2.51908 -9.16754e-17
12.3009 2.32558 2.51403e-17
13.7773 -4.5275 3.52819e-16
15.1933 -9.41512 6.15637e-16
8.27947 -7.35001 3.22561e-16
4.41078 -5.34127 4.53986e-17
1.59792 -7.57904 3.93001e-17
0.761401 -4.50472 -2.07492e-16
1.15153 -5.8725 -9.76836e-17
-9.17439 -17.4537 3.05747e-16
-11.0152 -17.6052 2.24745e-16
-10.0223 -13.1101 -1.57505e-16
-7.06578 -13.6924 5.57349e-17
-8.09554 -13.7659 7.72176e-18
2.1783 -23.7496 1.37822e-15
1.95258 -26.8875 1.67557e-15
0.615811 -28.5352 1.80714e-15
2.24888 -28.605 1.8545e-15
1.45777 -29.067 1.8824e-15
3.23354 -30.4204 2.06066e-15
1.31419 -30.986 2.07739e-15
2.45257 -29.5732 1.9573e-15
1.38482 -30.1022 1.98715e-15
0.371407 -30.6825 2.02396e-15
-5.53646 -29.555 1.73874e-15
-5.68475 -31.9171 2.0004e-15
-6.59661 -30.3362 1.79264e-15
-1.44875 -30.7771 1.98978e-15
12.3712 0.682996 9.32597e-17
11.1044 1.61096 8.18166e-18
14.0627 0.562824 1.55939e-16
13.8518 -2.81311 2.82117e-16
15.1492 -2.23835 2.94797e-16
13.1517 -5.47014 3.79399e-16
14.3027 -6.88335 4.71119e-16
13.5085 -8.14591 5.15323e-16
13.6053 -11.6171 7.07993e-16
13.4959 -9.86236 6.06042e-16
11.6623 -10.729 6.13036e-16
7.1134 -6.21311 2.17559e-16
8.20343 -5.35102 2.14659e-16
6.03019 -8.04118 2.77754e-16
6.26097 -6.83714 2.16766e-16
9.67404 -7.07585 3.55258e-16
3.89431 -7.56298 1.55368e-16
-11.8756 -16.8809 1.06483e-16
-9.72504 -13.8692 -6.98523e-17
-10.7314 -13.8359 -1.27354e-16
-11.6758 -14.1965 -1.44157e-16
-12.0515 -14.8427 -1.02448e-16
-11.1258 -14.8655 -4.9979e-17
-9.0269 -13.1212 -1.02544e-16
-9.90071 -12.0229 -2.52097e-16
2.5483 -24.8832 1.49599e-15
4.32326 -24.0774 1.46572e-15
3.75164 -25.1849 1.55569e-15
1.71853 -24.5531 1.44153e-15
1.34343 -23.7647 1.35553e-15
0.966287 -26.4263 1.6038e-15
1.61961 -28.0332 1.7815e-15
2.66521 -27.7844 1.78228e-15
2.21267 -30.6956 2.06688e-15
2.8479 -32.3498 2.25193e-15
-5.36194 -31.1991 1.92835e-15
-4.67162 -31.8536 2.02179e-15
-0.540047 -30.6583 1.99958e-15
13.5973 3.15213 4.06931e-17
16.1764 4.51394 7.55324e-17
15.9925 1.62189 1.7521e-16
14.469 4.55738 1.6611e-17
14.5935 6.58332 -5.5299e-17
9.69978 -9.89815 5.14216e-16
3.81082 -6.33658 7.48388e-17
5.04 -6.82088 1.63042e-16
2.65319 -6.68719 3.75019e-17
-12.7804 -17.3275 1.01075e-16
-11.02 -16.5598 1.2089e-16
3.23717 -23.9501 1.42596e-15
3.66323 -22.0413 1.26162e-15
3.9141 -22.9916 1.35501e-15
2.81704 -22.5914 1.28815e-15
5.53653 -22.4545 1.34744e-15
2.24516 -21.3246 1.15602e-15
4.9539 -23.1867 1.39924e-15
5.93848 -24.6677 1.55879e-15
5.25069 -24.0682 1.48756e-15
5.56404 -25.7218 1.64952e-15
4.90803 -24.9336 1.56005e-15
4.03162 -28.7461 1.90895e-15
3.14645 -28.6449 1.87941e-15
-5.15716 -32.7831 2.11365e-15
-3.18277 -31.2424 1.99477e-15
-0.190991 -30.0631 1.94543e-15
16.1169 9.35095 -9.6184e-17
9.26693 -8.45205 4.17408e-16
10.5325 -8.69983 4.69123e-16
8.15921 -9.13726 4.21083e-16
3.86492 -26.4003 1.67479e-15
3.61127 -29.5241 1.97783e-15
4.26907 -30.3346 2.07346e-15
-3.99753 -31.2975 1.97849e-15
-3.77263 -30.4483 1.89118e-15
-3.66909 -32.033 2.06917e-15
-2.34459 -31.2614 2.01911e-15
-0.831497 -30.0784 1.9309e-15
16.2006 6.95954 -1.19153e-17
13.3883 9.58451 -2.10263e-16
10.7913 -7.6854 4.21682e-16
7.13824 -7.76076 3.04438e-16
8.42854 -12.9149 6.6658e-16
14.5201 8.64853 -1.32606e-16
12.2746 10.3565 -2.84754e-16
8.66811 -11.1508 5.59453e-16
32.0533 -18.7169 6.05243e-16
-3.39236 -43.2995 2.33323e-15
11.8293 16.0952 -4.67626e-16
12.3431 14.3673 -4.11684e-16
22.6423 -42.2592 3.01706e-15
-16.6099 -12.8032 -4.89355e-16
22.1425 8.41992 9.88724e-17
28.9736 -34.0045 2.22177e-15
28.6589 -39.2894 2.77367e-15
27.9274 -40.9285 3.11958e-15
28.797 -37.2853 2.56352e-15
-9.6582 -27.7045 1.17084e-15
1.37561 -42.6966 2.84021e-15
30.732 -17.0722 1.0081e-15
-11.0694 -23.7674 7.10965e-16
-3.11684 -1.59171 -5.39237e-16
-13.844 -18.766 1.5114e-16
-7.08217 -5.52399 -5.48499e-16
-3.71165 -3.70531 -5.2937e-16
-1.61162 -3.83715 -4.00365e-16
-4.64173 -3.89872 -5.36719e-16
-2.73054 -3.43341 -4.98653e-16
-2.82648 -4.71233 -4.21225e-16
-1.58156 -5.3201 -3.00202e-16
-7.94095 -7.33157 -5.31333e-16
-6.08416 -7.56485 -4.17495e-16
-8.82918 -7.40652 -5.37787e-16
-6.99898 -7.17372 -5.03998e-16
-7.27679 -8.27231 -4.32331e-16
-5.94088 -9.26264 -2.7092e-16
-6.32804 -8.59505 -3.49046e-16
-5.34671 -8.46239 -3.01079e-16
-6.83359 -9.44079 -3.084e-16
11.0034 13.3949 -4.42031e-16
-5.41564 -38.1846 2.73263e-15
-3.44551 -37.8223 2.73146e-15
-4.32116 -38.6206 2.80649e-15
-4.49471 -37.5259 2.67534e-15
-3.61062 -39.4273 2.91493e-15
-4.72966 -36.4806 2.54898e-15
-2.74557 -35.2181 2.44841e-15
-3.8322 -35.6064 2.46841e-15
-4.56236 -39.5599 2.91153e-15
-4.13062 -40.2572 3.00231e-15
-4.5923 -40.9164 3.07055e-15
-5.22573 -40.3267 2.97315e-15
-6.13121 -41.0037 2.78747e-15
-4.26766 -34.5981 2.34297e-15
-2.61627 -36.5946 2.60718e-15
-3.54341 -36.7759 2.60881e-15
-4.40103 -41.6144 3.0967e-15
-4.63607 -33.677 2.22908e-15
-4.13114 -32.8309 2.14624e-15
-3.34874 -33.709 2.26463e-15
-2.94338 -36.0205 2.53507e-15
-1.94574 -35.881 2.54006e-15
-0.773942 -33.619 2.3135e-15
-1.05929 -37.5485 2.74459e-15
-1.66663 -34.6753 2.41087e-15
-1.8996 -36.9583 2.66256e-15
-2.64293 -34.4073 2.3595e-15
-2.40413 -32.8311 2.18971e-15
-0.0601042 -35.4138 2.52475e-15
-2.31215 -38.0233 2.77643e-15
-2.76518 -32.0371 2.09321e-15
-3.2612 -32.7324 2.1576e-15
-0.984709 -35.3652 2.50158e-15
-0.48885 -34.5712 2.42392e-15
-0.789449 -36.3377 2.61358e-15
0.188395 -33.2426 2.29309e-15
0.536671 -34.5603 2.44271e-15
0.811879 -36.5542 2.66522e-15
1.02244 -35.6119 2.56589e-15
0.0638102 -33.896 2.36126e-15
0.904527 -33.6123 2.34743e-15
0.918893 -32.6413 2.24367e-15
1.95494 -33.1023 2.31342e-15
0.235989 -36.1755 2.61393e-15
0.0466056 -37.0521 2.70772e-15
1.12165 -37.5357 2.77782e-15
2.83917 -33.1828 2.33887e-15
2.5276 -33.8471 2.40341e-15
-0.152441 -38.1796 2.83017e-15
-0.418181 -39.323 2.95496e-15
-0.561469 -40.3789 3.07296e-15
-1.52653 -39.8032 2.99419e-15
-2.48038 -39.1559 2.90404e-15
-1.32959 -38.6727 2.86762e-15
-3.24233 -38.6189 2.8277e-15
-6.87818 -40.7673 2.3087e-15
-12.4263 -21.4048 4.49295e-16
-10.6964 -21.9061 6.76159e-16
-10.1204 -21.1415 6.32256e-16
6.92973 -42.6623 2.77693e-15
27.5925 -28.3861 2.10432e-15
25.517 -26.9088 1.98657e-15
26.9281 -27.1197 2.00056e-15
26.1518 -28.2248 2.09639e-15
26.4948 -25.657 1.88082e-15
27.7331 -26.3837 1.9311e-15
24.7405 -30.5542 2.30071e-15
25.5311 -29.606 2.21687e-15
26.6624 -30.3767 2.27968e-15
23.5219 -28.784 2.14791e-15
24.6186 -28.181 2.09592e-15
24.2277 -29.6125 2.2192e-15
23.5886 -26.1337 1.92082e-15
22.6202 -30.8171 2.32427e-15
24.3053 -26.8326 1.98073e-15
24.712 -25.5494 1.87327e-15
23.2873 -29.7824 2.23455e-15
23.8126 -30.7448 2.31823e-15
21.0086 -28.8419 2.14676e-15
24.3164 -32.7124 2.49011e-15
22.3858 -29.0289 2.16773e-15
22.5324 -32.2583 2.4508e-15
21.7198 -27.5066 2.03339e-15
28.8392 -28.0779 2.01838e-15
19.8487 7.9722 6.84548e-17
19.7491 5.43009 1.45442e-16
17.9413 4.93427 1.13189e-16
18.6578 -41.7109 3.18913e-15
14.0768 -39.7709 3.10618e-15
25.0463 -7.91356 6.95659e-16
21.7774 -4.45697 5.05569e-16
25.6086 -22.9942 1.66671e-15
7.08038 8.34279 -4.62579e-16
25.777 -21.0531 1.51721e-15
-12.5294 -11.6146 -4.33046e-16
-11.7593 -12.156 -3.42207e-16
-10.9383 -11.7175 -3.37669e-16
-10.844 -12.6928 -2.41529e-16
-14.6034 -13.195 -4.02793e-16
7.34623 5.35086 -3.29909e-16
8.59615 4.02783 -2.09199e-16
10.0758 4.39496 -1.54499e-16
10.9691 3.14544 -6.19327e-17
11.747 4.46686 -8.42523e-17
27.7098 -29.7363 2.21881e-15
22.9494 -21.4304 1.53468e-15
20.7353 -23.113 1.65529e-15
22.0242 -22.4551 1.6105e-15
22.9057 -24.4311 1.77677e-15
20.6644 -21.6192 1.53232e-15
22.8384 -23.4569 1.69643e-15
24.0979 -23.8261 1.73065e-15
19.5466 -22.495 1.59339e-15
21.7188 -21.0286 1.49462e-15
18.8433 -25.2393 1.8193e-15
19.6001 -23.9453 1.71547e-15
21.1057 -25.0947 1.82358e-15
16.7492 -22.8127 1.5881e-15
20.6653 -24.2498 1.74916e-15
20.0773 -25.1543 1.82205e-15
20.7027 -26.3585 1.93011e-15
18.1023 -22.112 1.54606e-15
20.5941 -27.7204 2.04676e-15
18.808 -29.4134 2.18611e-15
19.8302 -28.6067 2.12044e-15
19.4949 -27.2856 2.0026e-15
19.5637 -26.1032 1.89992e-15
18.737 -26.426 1.92153e-15
18.7261 -23.2606 1.64973e-15
17.73 -23.5824 1.66562e-15
20.6 -31.1157 2.34644e-15
18.8458 -28.3006 2.0873e-15
17.0741 -27.9986 2.04607e-15
18.5308 -24.173 1.72479e-15
17.7008 -24.7942 1.76926e-15
19.9934 -30.0681 2.25088e-15
18.8893 -32.2022 2.43595e-15
18.5637 -30.9233 2.3197e-15
19.6967 -31.5259 2.37913e-15
21.0738 -32.5974 2.479e-15
19.6777 -32.7983 2.49269e-15
15.9639 -31.3284 2.33813e-15
17.6062 -29.89 2.22066e-15
20.7756 -13.2353 9.27622e-16
23.2517 -12.7033 9.28459e-16
1.47867 -39.1459 2.95939e-15
25.0892 -35.0836 2.69738e-15
25.4685 -36.1578 2.7914e-15
24.7104 -33.7818 2.58309e-15
26.5201 -36.5005 2.81857e-15
-9.20722 -10.3532 -3.65098e-16
-9.55884 -9.68977 -4.43999e-16
-3.6007 -7.69105 -2.55464e-16
-12.7183 -18.3666 2.04152e-16
0.00866594 -2.57517 -3.72621e-16
13.517 -38.7024 3.00501e-15
16.055 -38.1526 2.9639e-15
-4.25808 -6.9049 -3.55666e-16
19.9989 -40.8466 3.21368e-15
19.1696 -41.0433 3.23076e-15
-3.66372 -25.6343 1.38e-15
2.26106 -1.62744 -2.85551e-16
5.5591 -37.673 2.84838e-15
10.194 -36.3518 2.76057e-15
9.27627 -35.5509 2.67362e-15
9.81192 -34.4644 2.57284e-15
9.20143 -33.7075 2.49183e-15
10.1133 -33.4141 2.47426e-15
10.9464 -31.558 2.30542e-15
11.0618 -32.8454 2.43045e-15
10.3224 -35.2642 2.65593e-15
10.1106 -32.3008 2.36611e-15
8.75433 -30.8467 2.20516e-15
9.85686 -31.1218 2.2485e-15
13.4823 -31.8639 2.36425e-15
12.6718 -33.9674 2.55416e-15
9.128 -31.9778 2.32112e-15
8.60632 -32.9117 2.40553e-15
7.99554 -31.8329 2.29005e-15
9.90847 -28.0702 1.95709e-15
12.1498 -32.0164 2.36391e-15
11.9757 -33.462 2.49948e-15
12.0441 -34.6655 2.61458e-15
12.972 -34.8382 2.63889e-15
14.5084 -34.0545 2.57773e-15
13.8913 -34.9608 2.6576e-15
12.4471 -35.7676 2.72257e-15
14.8515 -35.2698 2.69291e-15
9.46085 -29.8788 2.1224e-15
27.8181 -37.7698 2.90281e-15
22.6271 -40.3407 3.16874e-15
21.6234 -35.8738 2.77071e-15
21.0497 -34.7445 2.66973e-15
22.239 -34.3342 2.63452e-15
23.2737 -33.5237 2.56246e-15
22.0881 -35.2032 2.71127e-15
23.0447 -35.0506 2.69757e-15
24.0331 -34.7809 2.67255e-15
-7.79787 -20.1433 6.43052e-16
-7.9373 -20.9417 7.17874e-16
-8.99198 -21.1043 6.842e-16
-8.24932 -21.9328 8.05857e-16
-9.58843 -22.2117 7.71336e-16
-3.16814 -22.3734 1.06826e-15
17.8132 -17.3173 1.16353e-15
7.61 0.921035 -1.1791e-16
8.10343 2.31333 -1.57015e-16
-2.29577 -21.519 1.01836e-15
-1.59643 -20.6824 9.653e-16
-0.0836679 -21.105 1.06005e-15
7.12634 -3.30888 6.52875e-17
5.48124 -33.7336 2.44156e-15
-0.164341 -16.1012 6.09643e-16
-3.01406 -15.7283 4.48308e-16
-2.79316 -14.5119 3.51286e-16
-2.50915 -11.7569 1.30864e-16
-2.13886 -13.2672 2.76605e-16
0.848101 -17.9631 8.10464e-16
-0.112716 -18.1769 7.9287e-16
-4.70771 -14.4432 2.48193e-16
-4.88424 -11.7503 6.24531e-19
-0.418001 -7.379 -8.74117e-17
-6.54689 -11.9706 -7.19776e-17
-6.16524 -14.0771 1.38892e-16
-6.07429 -13.0994 5.48038e-17
-5.60961 -12.2435 3.90947e-18
-4.69663 -13.0778 1.26652e-16
-3.84961 -11.9746 7.68014e-17
-3.28829 -13.096 2.02783e-16
-4.1181 -10.3783 -7.21767e-17
-4.28399 -11.1739 -1.48418e-17
-5.04099 -10.7395 -9.46154e-17
-3.53265 -11.0776 1.93056e-17
-2.98845 -9.1159 -1.09055e-16
-1.5433 -10.5331 8.45711e-17
-5.87099 -11.2812 -9.49365e-17
-4.99652 -9.61811 -1.86147e-16
-6.11893 -32.7251 2.08079e-15
15.1082 -4.11813 3.67941e-16
16.8962 -4.95226 4.41883e-16
3.79137 -31.9104 2.22472e-15
18.03 2.23056 2.07961e-16
15.9596 -0.881925 2.6491e-16
17.6019 -1.58207 3.28519e-16
13.3382 6.26842 -9.19137e-17
2.15444 -5.66074 -5.53097e-17
-5.64012 -33.6218 2.19693e-15
3.06475 -26.9545 1.70986e-15
3.98008 -27.657 1.80031e-15
5.21785 -27.5766 1.81987e-15
4.6038 -25.8 1.63491e-15
12.893 8.26946 -1.84261e-16
12.8897 -15.7008 9.61892e-16
10.92 -12.4218 6.98627e-16
6.23346 -11.4246 4.99827e-16
-0.773624 -4.72721 -2.88675e-16
-2.43504 -6.11871 -2.98915e-16
-3.37878 -34.7183 2.37771e-15
-2.02599 -33.676 2.29216e-15
-1.28556 -32.7171 2.2036e-15
-1.79266 -31.8948 2.10199e-15
-0.14201 -32.5737 2.21383e-15
-2.75896 -37.2614 2.68049e-15
1.47831 -36.4779 2.66771e-15
0.644706 -31.6999 2.13764e-15
1.86235 -31.8066 2.17504e-15
2.98355 -31.3594 2.1518e-15
-10.5365 -20.404 5.34262e-16
26.999 -24.0115 1.7473e-15
25.5113 -32.5183 2.47044e-15
24.5776 -31.623 2.39447e-15
25.6069 -31.0697 2.34347e-15
23.5208 -31.9723 2.4258e-15
23.1972 -27.4374 2.03154e-15
27.5154 -8.3998 7.27751e-16
26.168 -10.2523 8.22534e-16
24.1328 -10.0529 7.89832e-16
21.6321 -7.51675 6.30005e-16
23.3609 -8.40061 6.9749e-16
22.5867 -9.54862 7.42867e-16
20.9817 -10.0009 7.43666e-16
21.2286 -11.8665 8.50516e-16
19.5215 -11.5966 8.09808e-16
18.7706 -6.96149 5.61823e-16
20.118 -8.15502 6.38915e-16
24.2864 -22.069 1.59076e-15
26.9339 -22.5739 1.63478e-15
25.57 -24.4053 1.77964e-15
9.03025 5.77883 -2.62287e-16
10.4636 5.85131 -1.97719e-16
23.5083 -25.1328 1.83691e-15
21.8068 -24.0577 1.74046e-15
22.3159 -25.7525 1.8855e-15
16.5229 -26.7035 1.92496e-15
21.4868 -31.7526 2.40512e-15
20.5095 -32.1669 2.43937e-15
17.8803 -28.6946 2.11515e-15
15.6418 -29.1923 2.13997e-15
21.8063 -14.1719 1.00202e-15
20.5526 -15.0663 1.04326e-15
21.1336 -16.8432 1.17394e-15
19.2141 -18.312 1.25774e-15
20.3801 -17.9825 1.24769e-15
19.4706 -16.6447 1.13789e-15
-8.3695 -10.8969 -2.69384e-16
-7.61239 -11.8057 -1.45693e-16
-8.69971 -11.926 -1.94852e-16
-9.34189 -11.1259 -3.03182e-16
-4.39803 -7.9667 -2.82996e-16
-3.09781 -6.97648 -2.78459e-16
15.0053 -37.7966 2.92708e-15
17.9987 -36.2991 2.80166e-15
7.04751 -32.227 2.3142e-15
5.98592 -30.8534 2.15858e-15
12.443 -29.0802 2.09117e-15
12.966 -33.0154 2.46734e-15
14.0569 -32.9366 2.47007e-15
14.7857 -31.8252 2.37333e-15
13.9731 -29.8966 2.18649e-15
16.1154 -33.1551 2.50629e-15
15.0805 -30.3867 2.24351e-15
14.0427 -30.9067 2.28098e-15
12.8487 -30.4731 2.227e-15
15.7228 -32.3081 2.42569e-15
16.619 -32.2261 2.42483e-15
15.1383 -33.0802 2.49233e-15
13.2431 -29.3696 2.1287e-15
13.4899 -27.73 1.98041e-15
13.8828 -28.8241 2.0864e-15
13.0635 -28.54 2.04956e-15
14.7747 -28.1287 2.03345e-15
14.6869 -29.3013 2.13957e-15
11.2114 -27.6389 1.93773e-15
12.7558 -26.5578 1.86218e-15
17.1619 -31.1348 2.32963e-15
17.7937 -32.4162 2.44965e-15
17.5934 -34.0091 2.59309e-15
15.234 -26.2155 1.8662e-15
16.0432 -28.0496 2.04034e-15
15.3611 -27.1491 1.95172e-15
16.9511 -33.1282 2.50958e-15
16.7498 -34.9155 2.67127e-15
14.1945 -35.9623 2.75304e-15
20.6119 -33.2844 2.5388e-15
21.7464 -33.2107 2.53419e-15
16.2584 -20.0069 1.3478e-15
0.245962 -20.0903 9.78406e-16
1.05052 -21.0114 1.08973e-15
-0.712922 -20.2853 9.61574e-16
0.454644 -22.0184 1.16333e-15
-0.903586 -21.1276 1.03287e-15
-0.633826 -22.2018 1.14446e-15
-1.13569 -16.3285 5.88058e-16
-0.998659 -15.3983 5.13473e-16
0.553456 -19.0629 8.96518e-16
1.66144 -18.9938 9.29456e-16
2.604 -16.7697 7.72778e-16
1.94886 -17.574 8.16994e-16
0.886502 -16.7441 7.07189e-16
3.88131 -19.1627 1.01509e-15
2.85452 -18.7268 9.46247e-16
3.85458 -18.0233 9.18361e-16
3.12968 -20.2079 1.08286e-15
2.39194 -19.5237 1.00077e-15
-1.39568 -6.64646 -1.97451e-16
-0.347576 -5.97142 -1.80183e-16
0.521224 -6.99542 -5.90249e-17
-7.04285 -12.6553 -3.76786e-17
-5.99192 -10.1897 -1.95766e-16
-3.87362 -9.45445 -1.33649e-16
-3.66589 -8.53353 -1.94524e-16
-2.67408 -8.09222 -1.69228e-16
-1.47651 -7.86114 -1.15314e-16
-1.79347 -9.16955 -3.56557e-17
-0.48113 -9.73881 8.11067e-17
-0.506875 -8.59047 -5.95484e-18
0.569913 -8.15591 2.34476e-17
2.12688 -10.6507 2.79803e-16
1.64408 -9.16928 1.50425e-16
2.93716 -8.47275 1.67396e-16
0.776249 -10.2146 1.82234e-16
4.68507 -9.35199 3.0385e-16
4.92332 -8.33478 2.49654e-16
0.430133 -9.17619 8.80238e-17
0.868764 -13.3424 4.26208e-16
-0.226068 -11.813 2.53407e-16
4.04315 -8.69676 2.33602e-16
1.03033 -11.7567 3.10313e-16
-0.280023 -10.8937 1.7994e-16
-2.91762 -10.2087 -1.78095e-17
4.42601 -32.4693 2.29384e-15
3.60386 -32.8599 2.31928e-15
3.86235 -31.0834 2.14119e-15
16.909 -2.83454 3.594e-16
18.2775 -0.194904 2.95102e-16
19.5326 -2.73829 4.08873e-16
18.686 -4.47267 4.56507e-16
19.9994 -6.55062 5.64018e-16
4.9372 -26.6676 1.72552e-15
6.30704 -26.8358 1.77145e-15
5.43877 -29.1912 1.98253e-15
4.87105 -28.4769 1.90045e-15
12.5666 -13.166 7.82854e-16
10.0832 -11.3521 6.10657e-16
9.66009 -12.6368 6.81393e-16
10.5877 -13.8652 7.86146e-16
7.20054 -10.3224 4.62268e-16
5.83217 -9.55657 3.63298e-16
6.87436 -8.97474 3.66151e-16
26.6386 -31.6593 2.3911e-15
19.0628 -9.21592 6.73218e-16
17.3829 -10.09 6.91109e-16
17.3757 -7.67882 5.70158e-16
17.7727 -26.0105 1.87647e-15
16.7845 -29.02 2.13539e-15
16.3799 -30.1635 2.23533e-15
22.1914 -12.9107 9.27243e-16
18.9953 -19.5803 1.35176e-15
17.8006 -20.2182 1.38703e-15
18.1529 -18.8056 1.28036e-15
16.9641 -18.7264 1.25737e-15
16.7211 -21.3938 1.46901e-15
14.2797 -18.4258 1.19002e-15
14.6016 -21.4337 1.44013e-15
15.4931 -16.4509 1.06341e-15
15.5672 -18.668 1.23059e-15
15.6276 -21.0019 1.42043e-15
15.6601 -22.1429 1.51673e-15
14.7707 -19.9519 1.32014e-15
15.0867 -24.1627 1.68163e-15
15.6959 -23.2604 1.61218e-15
16.5055 -24.2182 1.70541e-15
14.4968 -22.8357 1.55786e-15
16.2103 -17.3795 1.14263e-15
16.5738 -15.6072 1.0198e-15
14.9654 -17.3733 1.12172e-15
13.7336 -16.8757 1.06255e-15
12.0034 -20.4716 1.31468e-15
13.1601 -24.7739 1.70731e-15
11.8485 -17.95 1.10883e-15
14.0137 -15.2248 9.49203e-16
13.3898 -20.6041 1.35088e-15
13.7646 -23.9649 1.64466e-15
14.344 -25.2608 1.76842e-15
13.1137 -22.8317 1.53502e-15
12.3719 -16.7581 1.0282e-15
11.0372 -16.5531 9.86225e-16
13.6142 -21.9006 1.46365e-15
13.2739 -25.6684 1.7896e-15
18.9695 -36.4993 2.82258e-15
19.8953 -37.0396 2.87284e-15
18.3284 -38.2722 2.98082e-15
18.636 -35.0433 2.69069e-15
19.1265 -37.7231 2.93293e-15
19.1728 -38.9213 3.04058e-15
18.3226 -39.4067 3.08302e-15
19.8141 -35.6291 2.74648e-15
4.92116 -31.4295 2.19689e-15
7.38533 -30.0441 2.10356e-15
10.938 -29.1636 2.07721e-15
10.6802 -30.1855 2.17063e-15
11.6792 -30.8104 2.24401e-15
13.4945 -33.9306 2.55804e-15
15.6939 -34.3139 2.61004e-15
12.2623 -27.7818 1.96763e-15
18.7196 -33.431 2.54595e-15
16.3972 -36.9543 2.85559e-15
0.147802 -17.2255 7.19466e-16
2.97616 -17.59 8.53609e-16
4.87865 -14.6197 6.80435e-16
4.71196 -21.1478 1.20964e-15
4.62023 -22.0271 1.28612e-15
3.14173 -21.4598 1.19419e-15
1.92293 -20.1576 1.04108e-15
3.6016 -10.9887 3.69558e-16
-0.16077 -14.4673 4.71628e-16
-1.18169 -11.6162 1.89493e-16
-0.737529 -12.4785 2.81567e-16
-1.57712 -12.4717 2.39217e-16
0.129981 -12.5024 3.2577e-16
-1.08887 -13.3824 3.38252e-16
-0.216721 -13.2289 3.66961e-16
4.59561 -29.4058 1.98671e-15
6.96765 -28.2108 1.91701e-15
5.30149 -30.1469 2.07503e-15
6.43768 -29.6284 2.04542e-15
12.7017 -12.2022 7.2529e-16
11.9124 -12.4004 7.19747e-16
11.7244 -13.5747 7.91912e-16
7.5404 -11.7698 5.652e-16
5.98671 -12.9587 5.95995e-16
7.19165 -12.9838 6.35874e-16
8.0798 -14.6684 7.78874e-16
15.6874 -12.1147 7.78981e-16
16.0311 -8.07151 5.64894e-16
15.7528 -25.3355 1.79407e-15
16.8436 -25.4279 1.81506e-15
17.9316 -14.3833 9.59011e-16
19.3107 -13.6913 9.34914e-16
17.8483 -12.4924 8.36781e-16
16.4038 -13.3197 8.64445e-16
16.2845 -11.4543 7.49687e-16
15.1591 -14.2781 9.06537e-16
15.1803 -15.5839 9.94739e-16
13.7068 -13.3444 8.1753e-16
14.9619 -12.6262 7.95811e-16
10.0078 -24.776 1.65299e-15
12.7499 -14.3662 8.67063e-16
14.653 -16.3045 1.03805e-15
12.5546 -19.2908 1.22837e-15
13.0669 -18.1322 1.14587e-15
11.6586 -15.175 8.99907e-16
12.5641 -21.6806 1.42718e-15
10.6107 -22.193 1.43447e-15
11.5238 -21.5076 1.39356e-15
9.33767 -19.8618 1.21097e-15
10.6419 -20.4746 1.28872e-15
9.49402 -21.1736 1.32497e-15
10.1098 -18.9308 1.15118e-15
8.82614 -22.9952 1.46942e-15
7.60146 -20.5134 1.2274e-15
11.3257 -19.1459 1.19326e-15
9.46209 -22.3185 1.42269e-15
10.0079 -23.506 1.53844e-15
8.40501 -21.6929 1.34617e-15
11.2924 -23.6296 1.57338e-15
7.12099 -23.028 1.43568e-15
11.905 -22.6342 1.49703e-15
12.511 -23.8376 1.61301e-15
11.9883 -25.0881 1.71663e-15
7.90824 -22.6141 1.41633e-15
8.07244 -23.6693 1.5144e-15
7.07457 -21.7045 1.31732e-15
6.31159 -22.3712 1.35873e-15
5.65355 -21.2488 1.24333e-15
11.3456 -26.4749 1.83237e-15
7.10848 -24.4013 1.56028e-15
7.42563 -25.7691 1.694e-15
9.06941 -24.1863 1.58149e-15
9.21143 -25.3763 1.69283e-15
10.2844 -27.1695 1.87887e-15
10.8478 -25.3245 1.71843e-15
10.8144 -24.4547 1.63909e-15
8.25018 -24.8941 1.62957e-15
8.66226 -27.313 1.86336e-15
8.43793 -26.1286 1.74778e-15
9.44449 -27.491 1.89421e-15
14.183 -26.6668 1.89278e-15
17.616 -35.2775 2.70792e-15
19.7307 -34.1596 2.61479e-15
19.1734 -40.0905 3.14544e-15
7.86414 -30.689 2.17509e-15
6.98797 -31.0455 2.19565e-15
8.27276 -29.6314 2.07886e-15
7.40841 -29.161 2.01795e-15
8.00783 -28.3061 1.94594e-15
9.11376 -28.5095 1.98527e-15
7.65587 -27.0698 1.82094e-15
10.1205 -29.0075 2.04972e-15
10.6606 -28.263 1.98765e-15
11.5339 -28.6028 2.03328e-15
11.6931 -29.7292 2.14191e-15
16.618 -33.9068 2.57841e-15
17.0145 -36.1419 2.78391e-15
17.3238 -37.5728 2.91518e-15
18.3596 -37.2727 2.89081e-15
17.6123 -38.7715 3.02435e-15
15.6626 -37.069 2.86308e-15
15.9076 -35.8808 2.75525e-15
4.15189 -15.769 7.44888e-16
3.05999 -13.2652 5.12393e-16
3.96934 -21.1611 1.1912e-15
3.82422 -9.64537 2.86903e-16
2.84462 -9.80634 2.53671e-16
4.84646 -10.4736 3.85156e-16
1.70663 -15.1824 6.09233e-16
5.89806 -28.3099 1.90522e-15
9.29344 -15.1184 8.41829e-16
9.38488 -14.0933 7.72614e-16
14.9082 -11.1576 7.07389e-16
19.111 -15.1513 1.02781e-15
18.1921 -15.8453 1.06168e-15
13.6129 -19.3141 1.24912e-15
8.46908 -17.5602 1.00625e-15
10.5887 -17.7771 1.07008e-15
9.55121 -17.8309 1.05163e-15
8.96023 -18.6658 1.10504e-15
9.39338 -16.3819 9.37655e-16
8.21501 -19.5243 1.1584e-15
8.57628 -20.5382 1.2513e-15
5.98408 -18.2067 9.94545e-16
6.06365 -23.445 1.4495e-15
6.52375 -25.4574 1.64553e-15
10.1594 -25.9144 1.76009e-15
3.55127 -16.8201 8.0921e-16
1.98639 -12.8885 4.39679e-16
2.64897 -11.9898 4.00618e-16
2.15249 -14.1671 5.45772e-16
3.51801 -14.5075 6.24391e-16
2.78033 -15.6253 6.85691e-16
0.832413 -15.5008 6.00485e-16
1.07433 -14.5138 5.28436e-16
1.77832 -16.2194 6.97145e-16
10.2381 -15.2156 8.7169e-16
7.01406 -19.2218 1.10483e-15
5.76834 -19.6707 1.11036e-15
7.21009 -17.7651 9.90925e-16
4.84512 -18.7261 1.00581e-15
4.86007 -17.1647 8.78194e-16
5.30372 -15.91 7.92537e-16
6.38581 -15.2162 7.72264e-16
6.23317 -16.7771 8.86565e-16
9.35272 -26.5278 1.80249e-15
6.58402 -20.466 1.1992e-15
4.57867 -20.1784 1.12194e-15
7.96158 -18.5121 1.07e-15
7.6391 -16.3995 8.95389e-16
5.79489 -14.0393 6.67274e-16
4.93364 -13.2779 5.82761e-16
4.05514 -13.6204 5.76761e-16
6.71202 -14.0097 6.93687e-16
3.88546 -12.4944 4.87687e-16
4.92506 -11.9229 4.86751e-16
3.64412 -41.9162 3.18034e-15
4.13954 -42.796 2.75668e-15
2.81513 -41.9622 3.22123e-15
-3.65077 -17.397 5.71024e-16
-6.62627 -31.8746 1.96824e-15
-6.18586 -31.0952 1.89196e-15
14.1595 10.7995 -2.19671e-16
21.3538 -30.2366 2.27078e-15
